ply
format ascii 1.0
element vertex 831
property float x
property float y
property float z
end_header
-0.9134926199913025 1.136841893196106 5.724231243133545
-0.9157071709632874 0.9281767010688782 5.740202903747559
-0.9156220555305481 0.8620659708976746 5.742297172546387
-0.9138842821121216 0.9889655113220215 5.733355522155762
-0.8807909488677979 2.6532280445098877 5.533065319061279
-0.9076727628707886 0.7657476663589478 5.718488693237305
-0.8865652084350586 0.256436824798584 5.590946197509766
-0.876910388469696 2.656465530395508 5.531948566436768
-0.9021759033203125 0.7969051599502563 5.698167324066162
-0.9081295132637024 0.9920207262039185 5.739182949066162
-0.9072802066802979 1.0191928148269653 5.738415718078613
-0.9009659886360168 0.7581719160079956 5.716630935668945
-0.871101438999176 2.6547114849090576 5.539682388305664
-0.901640772819519 0.8709954619407654 5.759233474731445
-0.8942728638648987 0.7917404770851135 5.726566314697266
-0.8980614542961121 0.8752402663230896 5.754986763000488
-0.8730330467224121 0.25631365180015564 5.594928741455078
-0.8904624581336975 0.8598721623420715 5.761173248291016
-0.8575375080108643 0.0709238350391388 5.597146511077881
-0.8622293472290039 0.36333292722702026 5.632117748260498
-0.8805859684944153 0.8768744468688965 5.758523464202881
-0.858182430267334 0.26362305879592896 5.613689422607422
-0.8618369102478027 0.43222203850746155 5.6456756591796875
-0.8774376511573792 0.8925638198852539 5.755009174346924
-0.8639209866523743 0.5656682252883911 5.6809611320495605
-0.8536869883537292 0.24528945982456207 5.615303993225098
-0.8564072847366333 0.3614756166934967 5.63533878326416
-0.8695987462997437 0.7621752023696899 5.724051475524902
-0.8623356819152832 0.5593637824058533 5.679686546325684
-0.8572917580604553 0.4320409595966339 5.6511735916137695
-0.852912187576294 0.2969264090061188 5.6273345947265625
-0.8597024083137512 0.6260291934013367 5.6895833015441895
-0.8650028109550476 0.7868873476982117 5.727982521057129
-0.8550198674201965 0.5019614100456238 5.662020206451416
-0.8574973344802856 0.562160074710846 5.6802191734313965
-0.8645765781402588 0.805669367313385 5.730605602264404
-0.8525193333625793 0.45468607544898987 5.661362171173096
-0.8651173710823059 0.8887186646461487 5.748868465423584
-0.8556720018386841 0.620756208896637 5.691717147827148
-0.855975329875946 0.6825191974639893 5.707205295562744
-0.8545884490013123 0.6640866994857788 5.699278831481934
-0.8582118153572083 0.7984930872917175 5.7305684089660645
-0.8541253209114075 0.749945342540741 5.721238136291504
-0.8806912302970886 2.906669855117798 6.153814792633057
-0.8624926209449768 2.947908401489258 6.026864051818848
-0.8645943403244019 2.9157111644744873 6.150670051574707
-0.8658470511436462 2.91195011138916 6.160854339599609
-0.8490306735038757 2.934892177581787 6.0493927001953125
-0.8408437371253967 2.922468662261963 6.00515604019165
-0.8489904403686523 2.955275774002075 6.063922882080078
-0.8550806641578674 2.9053587913513184 6.152925491333008
-0.8418784141540527 2.3892698287963867 6.061675071716309
-0.8360844850540161 2.9424965381622314 6.049052715301514
-0.8309202790260315 2.94514799118042 6.040641784667969
-0.8175331950187683 2.9656178951263428 5.9819655418396
-0.8212425112724304 2.957254648208618 6.033411502838135
-0.8134766817092896 2.9636569023132324 5.990966796875
-0.8139011263847351 2.9610400199890137 6.012860298156738
-0.8315075635910034 2.92279314994812 6.1533966064453125
-0.8123047947883606 2.9589767456054688 6.045954704284668
-0.819150447845459 2.9501194953918457 6.106723308563232
-0.8206765651702881 2.93308687210083 6.1715521812438965
-0.8060352802276611 2.1759700775146484 6.061722278594971
-0.8336137533187866 2.907132148742676 6.303836345672607
-0.8233119249343872 2.9201412200927734 6.249644756317139
-0.8111647963523865 2.934832811355591 6.175178527832031
-0.7724429368972778 2.970571756362915 5.9672441482543945
-0.8025602698326111 2.9312894344329834 6.200654983520508
-0.7522052526473999 2.445460319519043 5.908877849578857
-0.5461745858192444 2.034501552581787 5.35267972946167
-0.5446687340736389 2.05251407623291 5.353648662567139
-0.5404186248779297 2.0593550205230713 5.3546600341796875
-0.539804220199585 2.124732255935669 5.371732234954834
-0.5394613146781921 2.155914545059204 5.37492036819458
-0.5352750420570374 2.0512068271636963 5.34843635559082
-0.5352337956428528 2.1613974571228027 5.373494625091553
-0.5398980379104614 2.410487174987793 5.422764301300049
-0.5361829400062561 2.264195442199707 5.393861770629883
-0.537757158279419 2.3836236000061035 5.420787811279297
-0.5337588787078857 1.7879616022109985 5.3828816413879395
-0.5332685112953186 2.255532741546631 5.3887457847595215
-0.5322187542915344 2.2693302631378174 5.389982223510742
-0.5364204049110413 2.5088634490966797 5.438352108001709
-0.5306198000907898 2.2900540828704834 5.390298366546631
-0.5359346270561218 2.55747127532959 5.449060440063477
-0.532084584236145 2.3729231357574463 5.410280227661133
-0.5376482009887695 2.6511781215667725 5.473134517669678
-0.5241712927818298 2.052828550338745 5.343454360961914
-0.5287960171699524 1.7690948247909546 5.408930778503418
-0.5300326943397522 2.5597522258758545 5.443050384521484
-0.531269371509552 2.6514532566070557 5.467430591583252
-0.525696337223053 2.511686086654663 5.430307865142822
-0.5162126421928406 2.080185890197754 5.335926055908203
-0.5166552662849426 2.112170934677124 5.344427108764648
-0.5272487998008728 2.637789011001587 5.45658016204834
-0.5294756293296814 2.729006290435791 5.486356258392334
-0.522704005241394 2.630662441253662 5.455359935760498
-0.509216845035553 2.0652573108673096 5.333487510681152
-0.50999516248703 2.1227264404296875 5.3435750007629395
-0.5150688290596008 2.3927481174468994 5.401309490203857
-0.5200499296188354 2.7183001041412354 5.469627380371094
-0.5075746178627014 2.1296017169952393 5.344287395477295
-0.5142665505409241 2.5079572200775146 5.420547962188721
-0.514785647392273 2.57207989692688 5.43528938293457
-0.5049057602882385 2.096835136413574 5.336495876312256
-0.5052905678749084 2.1517510414123535 5.341137409210205
-0.5038725137710571 2.105104684829712 5.337057590484619
-0.5016629695892334 2.1139748096466064 5.336444854736328
-0.501272439956665 2.1393485069274902 5.341428756713867
-0.4998317360877991 2.060986280441284 5.3292155265808105
-0.5009578466415405 2.126483678817749 5.343108654022217
-0.5113371014595032 2.6987411975860596 5.462309837341309
-0.5106396079063416 2.704472541809082 5.460103988647461
-0.5059722065925598 2.5775609016418457 5.430384635925293
-0.494827538728714 2.0763120651245117 5.324279308319092
-0.49970898032188416 2.4832651615142822 5.402503490447998
-0.5002570152282715 2.568377733230591 5.424078464508057
-0.49690595269203186 2.392930269241333 5.389092922210693
-0.5022459030151367 2.7009010314941406 5.45836877822876
-0.4890035092830658 2.1191980838775635 5.335733413696289
-0.48773959279060364 2.1065845489501953 5.327941417694092
-0.4876270294189453 2.1281211376190186 5.338216781616211
-0.4862554371356964 2.087237596511841 5.324557304382324
-0.49504145979881287 2.559278964996338 5.424063682556152
-0.4864772856235504 2.150759220123291 5.336525917053223
-0.4860175848007202 2.140300989151001 5.336489200592041
-0.4861997365951538 2.1630759239196777 5.339736461639404
-0.4935457110404968 2.650083541870117 5.440058708190918
-0.49070119857788086 2.5441181659698486 5.417930603027344
-0.4822903871536255 2.179339647293091 5.338359355926514
-0.49147507548332214 2.6806881427764893 5.442174434661865
-0.4916355013847351 2.689354419708252 5.44752311706543
-0.48156771063804626 2.1727354526519775 5.340648174285889
-0.4885552227497101 2.572742223739624 5.426851749420166
-0.4790266156196594 2.1848905086517334 5.339365005493164
-0.48656129837036133 2.611297845840454 5.428163528442383
-0.475454717874527 2.0479142665863037 5.3122735023498535
-0.4760628342628479 2.1321399211883545 5.330688953399658
-0.4761412441730499 2.126176357269287 5.332620620727539
-0.48158279061317444 2.4909827709198 5.401052951812744
-0.4846765995025635 2.6995532512664795 5.446497917175293
-0.4745655655860901 2.1656556129455566 5.3389811515808105
-0.4730634093284607 2.156247615814209 5.332965850830078
-0.5131336450576782 0.37811192870140076 5.788804531097412
-0.4723299443721771 2.1385223865509033 5.333649635314941
-0.4800224304199219 2.636080741882324 5.427225589752197
-0.4789322018623352 2.620015859603882 5.421468734741211
-0.47952646017074585 2.707521677017212 5.448037624359131
-0.47432398796081543 2.4739503860473633 5.395284652709961
-0.472206711769104 2.3922133445739746 5.374403953552246
-0.4667622447013855 2.1360692977905273 5.326183795928955
-0.47134125232696533 2.4808619022369385 5.395225524902344
-0.47373780608177185 2.623847484588623 5.431797981262207
-0.47064560651779175 2.5456981658935547 5.409576892852783
-0.4716750979423523 2.6284310817718506 5.426657199859619
-0.4667823612689972 2.492380380630493 5.374102592468262
-0.4694841504096985 2.641157388687134 5.427757740020752
-0.46960264444351196 2.6251068115234375 5.430799961090088
-0.46657344698905945 2.6116297245025635 5.421947479248047
-0.4583722651004791 2.1411221027374268 5.327705383300781
-0.4584474265575409 2.1341140270233154 5.329583168029785
-0.46188443899154663 2.3357768058776855 5.369786739349365
-0.46743762493133545 2.6827495098114014 5.436291694641113
-0.45740562677383423 2.1498472690582275 5.325852870941162
-0.4636489748954773 2.5471038818359375 5.406404972076416
-0.46513229608535767 2.70170259475708 5.4382195472717285
-0.46278008818626404 2.616425037384033 5.419338226318359
-0.4566364288330078 2.284856081008911 5.354255199432373
-0.4532698094844818 2.1835148334503174 5.337851047515869
-0.455564945936203 2.4312288761138916 5.376608371734619
-0.4576076865196228 2.546090602874756 5.404593467712402
-0.45864415168762207 2.6550073623657227 5.430980205535889
-0.45565205812454224 2.608663320541382 5.417426109313965
-0.455791711807251 2.6772477626800537 5.43089485168457
-0.4552801549434662 2.7025866508483887 5.436220645904541
-0.4443151652812958 2.1841671466827393 5.330318927764893
-0.4531741738319397 2.684838056564331 5.438052654266357
-0.4474484324455261 2.433805227279663 5.381448268890381
-0.44678279757499695 2.4666295051574707 5.379624366760254
-0.4495167136192322 2.6087207794189453 5.414892196655273
-0.4465659260749817 2.440714120864868 5.383029460906982
-0.4498037099838257 2.6631245613098145 5.426652431488037
-0.44334742426872253 2.284175157546997 5.349895477294922
-0.4471430778503418 2.5113086700439453 5.398212909698486
-0.44479891657829285 2.4886815547943115 5.386113166809082
-0.43987637758255005 2.2490992546081543 5.343161106109619
-0.44384056329727173 2.545114278793335 5.402210235595703
-0.43817856907844543 2.179441213607788 5.333281517028809
-0.4439838230609894 2.606642007827759 5.41270637512207
-0.44100359082221985 2.4424362182617188 5.377925872802734
-0.4451850652694702 2.695612907409668 5.433535099029541
-0.43638893961906433 2.197669744491577 5.33674955368042
-0.4371718466281891 2.4310057163238525 5.379192352294922
-0.43815189599990845 2.5119125843048096 5.395641326904297
-0.4319774806499481 2.14174222946167 5.324727535247803
-0.4349114000797272 2.370095729827881 5.3685102462768555
-0.42932096123695374 2.096639633178711 5.31497859954834
-0.44095516204833984 2.353407382965088 5.465071201324463
-0.43758296966552734 2.70232892036438 5.4349684715271
-0.4361746311187744 2.6302075386047363 5.42160701751709
-0.42826876044273376 2.2488560676574707 5.342459201812744
-0.4292842745780945 2.3653454780578613 5.366336822509766
-0.43224379420280457 2.553924322128296 5.408172607421875
-0.4335203170776367 2.6924331188201904 5.426433563232422
-0.42911165952682495 2.412468671798706 5.372472286224365
-0.4245198369026184 2.0984609127044678 5.315093517303467
-0.43134093284606934 2.5447335243225098 5.403027534484863
-0.4318525493144989 2.615980863571167 5.415020942687988
-0.4320448338985443 2.6488356590270996 5.4202961921691895
-0.43228453397750854 2.702404499053955 5.434497833251953
-0.4290313720703125 2.5164272785186768 5.394985675811768
-0.43033677339553833 2.681002378463745 5.4254961013793945
-0.42907723784446716 2.6245977878570557 5.418627738952637
-0.4266515374183655 2.492147207260132 5.388542175292969
-0.42893293499946594 2.668710231781006 5.425167083740234
-0.4228842556476593 2.468733549118042 5.390415668487549
-0.41968822479248047 2.2965989112854004 5.355029106140137
-0.42174920439720154 2.478860855102539 5.386045455932617
-0.4164331257343292 2.166670322418213 5.322330951690674
-0.4238624572753906 2.686094284057617 5.42921257019043
-0.4215419292449951 2.6298086643218994 5.4176177978515625
-0.4205579459667206 2.611673355102539 5.413094520568848
-0.4186587929725647 2.5059685707092285 5.393526077270508
-0.41798096895217896 2.4700231552124023 5.385563373565674
-0.41658419370651245 2.41764497756958 5.377203941345215
-0.41309380531311035 2.4297373294830322 5.377842426300049
-0.41300514340400696 2.411282777786255 5.378119468688965
-0.4161737561225891 2.648697853088379 5.422183036804199
-0.4153711199760437 2.606182813644409 5.413407802581787
-0.411593496799469 2.369034767150879 5.366364002227783
-0.40856343507766724 2.1515300273895264 5.329763889312744
-0.4150291979312897 2.625852108001709 5.416048526763916
-0.41609659790992737 2.6839163303375244 5.43096923828125
-0.4124440848827362 2.65157413482666 5.416688919067383
-0.41086968779563904 2.563541889190674 5.405320644378662
-0.4041028916835785 2.103017568588257 5.316416263580322
-0.40926969051361084 2.478189706802368 5.39422607421875
-0.41024547815322876 2.624237060546875 5.41912317276001
-0.4034275710582733 2.1655895709991455 5.333380222320557
-0.4094190299510956 2.700333833694458 5.428566932678223
-0.4081166088581085 2.611401081085205 5.413753509521484
-0.4070344567298889 2.6803975105285645 5.429940223693848
-0.40036526322364807 2.2599070072174072 5.347999095916748
-0.3961120843887329 2.1016976833343506 5.31685209274292
-0.40259113907814026 2.6029183864593506 5.411938190460205
-0.402210533618927 2.6323227882385254 5.414867401123047
-0.4019828736782074 2.6220712661743164 5.4178009033203125
-0.3918916583061218 2.072000503540039 5.312048435211182
-0.39327043294906616 2.2506630420684814 5.348624229431152
-0.39574795961380005 2.4708988666534424 5.387674808502197
-0.395264208316803 2.5015933513641357 5.392613887786865
-0.39507487416267395 2.4807841777801514 5.390928268432617
-0.3891214430332184 2.098331928253174 5.316340446472168
-0.38852113485336304 2.0883066654205322 5.315378189086914
-0.38950443267822266 2.165086507797241 5.33231258392334
-0.3952583968639374 2.6048786640167236 5.41351318359375
-0.3967030644416809 2.7019901275634766 5.434210777282715
-0.39481887221336365 2.6155970096588135 5.417361259460449
-0.39127999544143677 2.3754398822784424 5.37052059173584
-0.3860607147216797 2.0630829334259033 5.310871601104736
-0.38575688004493713 2.081036329269409 5.3163743019104
-0.3871381878852844 2.255389451980591 5.347009181976318
-0.3843924403190613 2.104562282562256 5.322116851806641
-0.3886588215827942 2.559520721435547 5.399129867553711
-0.3893873989582062 2.6697194576263428 5.429409980773926
-0.3849972188472748 2.3686025142669678 5.369901657104492
-0.3874421715736389 2.6480696201324463 5.42304801940918
-0.38032421469688416 2.1620962619781494 5.3315558433532715
-0.38596242666244507 2.6577532291412354 5.424168586730957
-0.38098475337028503 2.3141448497772217 5.358583450317383
-0.38330748677253723 2.499354839324951 5.392243385314941
-0.382997989654541 2.458390951156616 5.3879570960998535
-0.3802533745765686 2.3273913860321045 5.3605170249938965
-0.3788663446903229 2.3721044063568115 5.364899635314941
-0.37669917941093445 2.1732065677642822 5.337452411651611
-0.376559853553772 2.1928348541259766 5.341871738433838
-0.3791046738624573 2.4715864658355713 5.386896133422852
-0.37807777523994446 2.4545810222625732 5.389419078826904
-0.38019049167633057 2.697389841079712 5.42948055267334
-0.3788188397884369 2.621204376220703 5.421069622039795
-0.3780093193054199 2.669445037841797 5.428496837615967
-0.3722098767757416 2.3021302223205566 5.361233234405518
-0.3687947392463684 2.07853364944458 5.316770076751709
-0.3698498606681824 2.179295063018799 5.342142581939697
-0.3709620237350464 2.3156683444976807 5.365592956542969
-0.3740939497947693 2.638607978820801 5.422516345977783
-0.37120652198791504 2.4647488594055176 5.3829026222229
-0.3683551847934723 2.1919291019439697 5.3417205810546875
-0.3697684705257416 2.32712984085083 5.365227699279785
-0.3670934736728668 2.1707379817962646 5.335837364196777
-0.3712877631187439 2.5792791843414307 5.411064624786377
-0.3714800477027893 2.6204960346221924 5.420474052429199
-0.36581623554229736 2.1851165294647217 5.341304779052734
-0.3641904890537262 2.0875697135925293 5.320601463317871
-0.36616411805152893 2.2321479320526123 5.353830814361572
-0.36346757411956787 2.0735721588134766 5.318252086639404
-0.36583802103996277 2.300137519836426 5.356474876403809
-0.3631013035774231 2.101752519607544 5.3257317543029785
-0.36942628026008606 2.653628349304199 5.426511287689209
-0.36638304591178894 2.424359083175659 5.384127140045166
-0.3677881062030792 2.544053554534912 5.408011436462402
-0.3688187599182129 2.6993408203125 5.43685245513916
-0.3687421679496765 1.6913021802902222 5.456563949584961
-0.3610267639160156 2.234626054763794 5.34944486618042
-0.3616149425506592 2.314974308013916 5.367681503295898
-0.36411818861961365 2.5567874908447266 5.410829544067383
-0.3589884042739868 2.1615076065063477 5.339519500732422
-0.36495450139045715 2.6627883911132812 5.43101692199707
-0.36017754673957825 2.342163324356079 5.366501808166504
-0.36291971802711487 2.5443968772888184 5.408108711242676
-0.3629641532897949 2.5975756645202637 5.423089027404785
-0.36340877413749695 2.6701273918151855 5.4347639083862305
-0.35848268866539 2.353951930999756 5.368445873260498
-0.36110779643058777 2.5897858142852783 5.417227745056152
-0.3549850881099701 2.075442314147949 5.32632303237915
-0.3549257516860962 2.1004090309143066 5.328668594360352
-0.36058610677719116 2.657566785812378 5.431073188781738
-0.35516563057899475 2.301917314529419 5.3655171394348145
-0.35324573516845703 2.18108868598938 5.341823577880859
-0.35953792929649353 2.7001953125 5.446332931518555
-0.356662392616272 2.575054168701172 5.420591831207275
-0.350602924823761 2.1581389904022217 5.335962772369385
-0.34857431054115295 2.1023898124694824 5.3295793533325195
-0.35109570622444153 2.3268158435821533 5.373592376708984
-0.3500359058380127 2.307406425476074 5.367588520050049
-0.3462536633014679 2.086724281311035 5.327524662017822
-0.3524227738380432 2.6357338428497314 5.439044952392578
-0.3496530055999756 2.502810001373291 5.405593395233154
-0.3447745144367218 2.135190486907959 5.332738876342773
-0.34432366490364075 2.077955722808838 5.326759338378906
-0.34796252846717834 2.4055163860321045 5.38457727432251
-0.3472425043582916 2.348241090774536 5.373776435852051
-0.34693393111228943 2.458754301071167 5.408409595489502
-0.3428077697753906 2.162344455718994 5.351024150848389
-0.34394192695617676 2.3143115043640137 5.374234676361084
-0.34729644656181335 2.665226459503174 5.433111667633057
-0.3474002778530121 2.718240737915039 5.452680587768555
-0.34324517846107483 2.4517693519592285 5.3946027755737305
-0.34471553564071655 2.578932285308838 5.424238681793213
-0.33855193853378296 2.0835394859313965 5.329481601715088
-0.3392574191093445 2.2950987815856934 5.370536804199219
-0.3415197432041168 2.07645583152771 5.415369510650635
-0.342062383890152 2.653548002243042 5.435625076293945
-0.3353678286075592 2.099205732345581 5.336345195770264
-0.33716851472854614 2.166781425476074 5.368337631225586
-0.34162798523902893 2.6651723384857178 5.441666126251221
-0.33701086044311523 2.2545673847198486 5.3692402839660645
-0.3361845314502716 2.2068426609039307 5.35675573348999
-0.3399319350719452 2.5464117527008057 5.416721820831299
-0.33734917640686035 2.338236093521118 5.383204460144043
-0.3369504511356354 2.330353021621704 5.377805709838867
-0.33659377694129944 2.3021180629730225 5.376928806304932
-0.3397442698478699 2.5674121379852295 5.427945137023926
-0.3394974172115326 2.5595786571502686 5.4267048835754395
-0.33418792486190796 2.2771971225738525 5.370839595794678
-0.3334673047065735 2.3058111667633057 5.373362064361572
-0.3356076180934906 2.659656524658203 5.439403057098389
-0.32896313071250916 1.8207507133483887 5.33201265335083
-0.33108586072921753 2.2626256942749023 5.377254009246826
-0.3295295238494873 2.1814682483673096 5.352988243103027
-0.3306412398815155 2.2823989391326904 5.371321201324463
-0.3275187611579895 2.072464942932129 5.3363494873046875
-0.3325754702091217 2.5574092864990234 5.420732498168945
-0.33202046155929565 2.545626401901245 5.422024250030518
-0.3267141282558441 2.166717052459717 5.351646423339844
-0.3294203281402588 2.451280355453491 5.403420448303223
-0.32994723320007324 2.5201520919799805 5.416738510131836
-0.3261663317680359 2.2223410606384277 5.366243362426758
-0.32464781403541565 2.146303176879883 5.352988243103027
-0.32544779777526855 2.2769572734832764 5.3750152587890625
-0.3229152262210846 2.076155662536621 5.337137222290039
-0.3252125382423401 2.2877700328826904 5.375186920166016
-0.3294200003147125 2.7070810794830322 5.451098918914795
-0.3244282007217407 2.346858024597168 5.387301921844482
-0.3241085112094879 2.3227767944335938 5.382176399230957
-0.3258863091468811 2.5471720695495605 5.420806407928467
-0.3223162591457367 2.4211387634277344 5.40215539932251
-0.31915566325187683 2.122694730758667 5.353867530822754
-0.3199111819267273 2.2050771713256836 5.371391773223877
-0.32019996643066406 2.226106643676758 5.381751537322998
-0.3183560371398926 2.1941232681274414 5.362728595733643
-0.3172469437122345 2.1582531929016113 5.36220645904541
-0.3173288106918335 2.27824330329895 5.385519027709961
-0.31604188680648804 2.2307262420654297 5.370778560638428
-0.31068506836891174 -0.9544101357460022 5.289728164672852
-0.31754517555236816 2.46004056930542 5.41081428527832
-0.3132859766483307 2.2230610847473145 5.3801774978637695
-0.31185197830200195 2.1440720558166504 5.3595476150512695
-0.31083717942237854 2.1341323852539062 5.3630170822143555
-0.31431102752685547 2.5389866828918457 5.42746639251709
-0.3127899169921875 2.424597978591919 5.405612468719482
-0.3105975091457367 2.157618284225464 5.369318962097168
-0.310977965593338 2.4398317337036133 5.399518966674805
-0.308701753616333 2.1123828887939453 5.364498615264893
-0.3110072612762451 2.4031245708465576 5.407614707946777
-0.3076287806034088 2.2753849029541016 5.375025272369385
-0.3095692992210388 2.450162649154663 5.410475254058838
-0.30631282925605774 2.1345598697662354 5.361661911010742
-0.3095621168613434 2.53336763381958 5.430055141448975
-0.3062945008277893 2.2574050426483154 5.385429859161377
-0.30632975697517395 2.2748215198516846 5.39026403427124
-0.30624517798423767 2.387500286102295 5.412556171417236
-0.30522841215133667 2.3258213996887207 5.395254135131836
-0.302912175655365 2.121443748474121 5.3669962882995605
-0.30556076765060425 0.014338365755975246 5.433065414428711
-0.30417400598526 2.4374876022338867 5.412878513336182
-0.30522024631500244 2.4647669792175293 5.43315315246582
-0.3032363951206207 2.338289260864258 5.400300025939941
-0.30144044756889343 2.1337168216705322 5.37026309967041
-0.3020186722278595 2.3926169872283936 5.4109721183776855
-0.3023039996623993 2.417522668838501 5.417308807373047
-0.30239832401275635 2.468289375305176 5.426147937774658
-0.30095165967941284 2.3887972831726074 5.4104437828063965
-0.30063772201538086 2.350224733352661 5.405787944793701
-0.3021259605884552 0.01988253742456436 5.432933330535889
-0.2992773652076721 2.3774588108062744 5.41357946395874
-0.2982617914676666 2.3616926670074463 5.40762996673584
-0.2951926290988922 2.122446060180664 5.3684000968933105
-0.2946189343929291 2.2803454399108887 5.384601593017578
-0.2979629933834076 -0.029370667412877083 5.447439193725586
-0.2960662245750427 2.4000158309936523 5.416919231414795
-0.29289132356643677 2.1391563415527344 5.373147010803223
-0.29320573806762695 2.197775363922119 5.385599136352539
-0.2941829264163971 2.35052227973938 5.408287525177002
-0.29238927364349365 2.2152740955352783 5.382522106170654
-0.29270604252815247 2.2475430965423584 5.392205238342285
-0.29289510846138 1.4618948698043823 5.406010150909424
-0.29448047280311584 0.01524049136787653 5.439554214477539
-0.29441118240356445 2.5388615131378174 5.441924095153809
-0.2902538776397705 2.2327446937561035 5.387824058532715
-0.2896455228328705 2.2214748859405518 5.387305736541748
-0.2886863648891449 2.2116219997406006 5.388757228851318
-0.29074475169181824 2.4529285430908203 5.43344783782959
-0.2883760631084442 2.2030749320983887 5.390105247497559
-0.2900661528110504 2.5183284282684326 5.436224937438965
-0.2871077060699463 2.121274471282959 5.381343841552734
-0.2890720069408417 -0.012241767719388008 5.422395706176758
-0.2880544662475586 -0.07696399092674255 5.428582668304443
-0.2878187298774719 2.4060380458831787 5.4265217781066895
-0.28818970918655396 2.458770751953125 5.433835983276367
-0.2871708869934082 -0.017969980835914612 5.420281887054443
-0.28477078676223755 2.2151801586151123 5.39000940322876
-0.28543734550476074 2.373058557510376 5.42130708694458
-0.2844060957431793 2.2484848499298096 5.40463924407959
-0.2832928001880646 2.175642728805542 5.387667655944824
-0.2841224670410156 2.281944990158081 5.405568599700928
-0.28361183404922485 2.2690658569335938 5.403339862823486
-0.28218916058540344 2.151487112045288 5.384582042694092
-0.2851100564002991 2.5124318599700928 5.442911148071289
-0.2832735776901245 2.35428786277771 5.415050506591797
-0.2841852307319641 2.442701578140259 5.432527542114258
-0.2824232876300812 2.3272976875305176 5.419585704803467
-0.281674861907959 -0.013974223285913467 5.423145294189453
-0.2817794382572174 -0.07463184744119644 5.433846950531006
-0.2830379009246826 2.5536928176879883 5.460092544555664
-0.27997449040412903 2.3328235149383545 5.416386127471924
-0.27599602937698364 2.1279661655426025 5.393373966217041
-0.27515602111816406 2.118685007095337 5.39499044418335
-0.2753678262233734 2.334874391555786 5.414410591125488
-0.2781147360801697 2.5391485691070557 5.468929290771484
-0.27210626006126404 2.225181818008423 5.40078067779541
-0.2732338011264801 2.31793475151062 5.432250022888184
-0.27065509557724 2.083970785140991 5.388349533081055
-0.27151352167129517 -0.04351072758436203 5.419490337371826
-0.2721532881259918 2.5580832958221436 5.464929103851318
-0.2704698443412781 -0.03727767989039421 5.433287620544434
-0.26875296235084534 2.181999444961548 5.404618740081787
-0.2681679427623749 2.317233085632324 5.42354154586792
-0.2694642245769501 2.5133004188537598 5.457208156585693
-0.2684352397918701 2.3863022327423096 5.442348480224609
-0.2655341923236847 2.087373733520508 5.389659881591797
-0.2666669189929962 2.2232940196990967 5.415208339691162
-0.26652342081069946 2.2163565158843994 5.426351547241211
-0.26440542936325073 2.1838741302490234 5.411596775054932
-0.2654920220375061 2.380851984024048 5.458809852600098
-0.2650938034057617 2.4464828968048096 5.473408222198486
-0.26009508967399597 2.0939126014709473 5.385628700256348
-0.26042836904525757 2.1351449489593506 5.3994269371032715
-0.26441052556037903 2.4936020374298096 5.488862037658691
-0.2603360712528229 2.5058956146240234 5.482685089111328
-0.25591811537742615 2.3297860622406006 5.44913387298584
-0.25295761227607727 2.5075621604919434 5.481884956359863
-0.2487601786851883 2.36004638671875 5.473305702209473
-0.24633312225341797 2.046335220336914 5.424094200134277
-0.24625934660434723 2.4927737712860107 5.495034217834473
-0.24213264882564545 2.1377813816070557 5.445611953735352
-0.2401641607284546 2.143615484237671 5.440568447113037
-0.2526531219482422 1.8457680940628052 5.727606296539307
-0.21034565567970276 1.5872644186019897 5.707185745239258
-0.18118879199028015 0.04251670464873314 5.597211837768555
-0.15892288088798523 0.06212358921766281 5.615046977996826
-0.14071983098983765 0.3014398515224457 5.664160251617432
-0.13486412167549133 0.24108095467090607 5.650262832641602
-0.13390734791755676 0.2989301383495331 5.661299705505371
-0.13661082088947296 0.8506303429603577 5.7767510414123535
-0.13053345680236816 0.8540858030319214 5.775586128234863
-0.1305067539215088 0.867545485496521 5.775604724884033
-0.1283499151468277 0.9026640057563782 5.764221668243408
-0.1256561428308487 0.23868225514888763 5.652235984802246
-0.12209081649780273 1.7035502195358276 5.674537181854248
-0.12066517770290375 1.5490018129348755 5.699099540710449
-0.11990892142057419 1.7095794677734375 5.6764044761657715
-0.11973033100366592 1.7356343269348145 5.67837381362915
-0.12138199061155319 0.8528597950935364 5.772043704986572
-0.12097930163145065 0.8820332288742065 5.7661967277526855
-0.12047626078128815 0.86188805103302 5.780704975128174
-0.11724425107240677 1.4908467531204224 5.699646472930908
-0.1157962754368782 1.7368134260177612 5.667062282562256
-0.11466489732265472 1.6779738664627075 5.685115337371826
-0.11373484134674072 0.8895202875137329 5.769763469696045
-0.11170266568660736 1.6503956317901611 5.689095973968506
-0.1066063940525055 1.545251727104187 5.700911998748779
-0.10574451833963394 0.8659014105796814 5.779845714569092
-0.10368288308382034 1.5771095752716064 5.694209098815918
-0.10121235996484756 0.2705068290233612 5.612194538116455
-0.1008906289935112 1.6757457256317139 5.6810994148254395
-0.10087690502405167 1.5815173387527466 5.693462371826172
-0.10047697275876999 1.5693359375 5.6896867752075195
-0.10046874731779099 1.5382825136184692 5.696981430053711
-0.09730648994445801 1.6096152067184448 5.68864107131958
-0.09708841145038605 0.8340377807617188 5.775643348693848
-0.09589588642120361 0.8632992506027222 5.778585910797119
-0.09300263226032257 0.8388394713401794 5.773265838623047
-0.09223093837499619 0.8539367914199829 5.7761616706848145
-0.0862477496266365 0.6823348999023438 5.746989727020264
-0.028884407132864 0.04266779497265816 5.611507892608643
0.12264957278966904 0.07274799048900604 5.8092756271362305
0.12522636353969574 0.0777321383357048 5.805832386016846
0.1349886804819107 -1.5542784929275513 5.232181072235107
0.14617541432380676 -1.561379075050354 5.255923748016357
0.1707751303911209 -1.1123695373535156 5.282381534576416
0.21780693531036377 1.3902502059936523 4.207382678985596
0.5221551060676575 1.0768553018569946 5.994711399078369
0.5831046104431152 2.974964141845703 5.997132778167725
0.6082333922386169 2.9532880783081055 6.133018970489502
0.635409414768219 2.9687464237213135 6.011397361755371
0.6477466821670532 2.9622979164123535 6.071435451507568
0.6979686617851257 2.9524450302124023 6.116143703460693
0.692617654800415 2.9660420417785645 6.03403377532959
0.6022676229476929 1.2056363821029663 5.178467750549316
0.6627829670906067 0.9841476678848267 5.59372615814209
0.7395573854446411 2.9564034938812256 6.12331485748291
0.6841104030609131 0.33138224482536316 5.521222114562988
0.6872495412826538 0.335662305355072 5.527029991149902
0.7873835563659668 2.9569437503814697 6.116787433624268
0.7588157653808594 0.8208091259002686 5.590383052825928
0.8331809043884277 2.9719736576080322 6.004177093505859
0.8547104001045227 2.941202163696289 6.146756172180176
0.7622551918029785 1.0862606763839722 5.430421352386475
0.7955864071846008 1.0642832517623901 5.518716812133789
0.8955865502357483 2.9684321880340576 6.027061462402344
0.8956873416900635 2.974222183227539 6.003815174102783
0.9011621475219727 2.970686674118042 6.021204948425293
0.43509265780448914 -0.30330711603164673 2.845188617706299
0.9343715906143188 2.962137460708618 6.060577392578125
0.9407589435577393 2.958934783935547 6.080708980560303
0.8144702315330505 1.167372703552246 5.239996433258057
0.9402387738227844 2.9738428592681885 5.9956817626953125
0.9540514945983887 1.093948483467102 6.076050281524658
0.9514903426170349 2.969453811645508 5.996891975402832
0.9793385863304138 2.972900390625 6.033353805541992
0.9937332272529602 2.9538888931274414 6.090941905975342
0.9941680431365967 2.9595391750335693 6.088759899139404
0.9814336895942688 2.9759349822998047 6.001043796539307
0.9941651821136475 2.9637482166290283 6.069911956787109
1.0080872774124146 2.9609615802764893 6.071778774261475
0.7015974521636963 1.3467862606048584 4.085163593292236
1.0660542249679565 1.177060842514038 6.128328800201416
1.0465879440307617 1.1295645236968994 5.791896343231201
1.0032051801681519 1.0807300806045532 5.503897190093994
1.0228633880615234 1.0646944046020508 5.534973621368408
0.9186289310455322 2.047560453414917 4.521742820739746
1.0711530447006226 1.1563279628753662 5.236248016357422
1.0725265741348267 0.9918897747993469 5.1507649421691895
1.1240785121917725 1.1316334009170532 5.300621509552002
1.2558084726333618 1.116586446762085 5.820708274841309
0.8361753821372986 1.1970571279525757 3.8718955516815186
1.2187552452087402 0.9430820345878601 5.611770153045654
0.8405457139015198 1.1806342601776123 3.8626294136047363
0.8431210517883301 1.174782395362854 3.8598272800445557
1.228241205215454 0.9367773532867432 5.604860782623291
1.2258726358413696 -0.004889409523457289 5.4584574699401855
1.2355998754501343 -0.025535499677062035 5.496166706085205
1.2456889152526855 0.017976799979805946 5.4959611892700195
1.2594883441925049 1.0793410539627075 5.543447494506836
1.2429219484329224 -0.09118048846721649 5.4608893394470215
1.247542381286621 -0.09657749533653259 5.462099075317383
0.8772997856140137 1.158687710762024 3.839292526245117
1.1970634460449219 -2.1212050914764404 5.214066505432129
1.2533105611801147 -0.03349877893924713 5.457571029663086
1.2549629211425781 -0.0036963247694075108 5.456035137176514
1.1895991563796997 -2.043067216873169 5.164333343505859
1.2115858793258667 1.1618304252624512 5.240416526794434
1.260103464126587 -0.693099856376648 5.404763698577881
1.231458306312561 1.1968327760696411 5.24487829208374
1.2727748155593872 -0.639552652835846 5.417637825012207
1.2672172784805298 1.1143113374710083 5.366113185882568
0.9566888213157654 1.1143478155136108 3.8209033012390137
1.3099043369293213 -0.08731705695390701 5.096408843994141
1.3166269063949585 -0.08664744347333908 5.090319633483887
1.447867512702942 1.0631178617477417 5.5529890060424805
1.2401446104049683 1.3030740022659302 4.74189567565918
1.0910266637802124 1.2572144269943237 4.116763114929199
1.0190502405166626 1.1004867553710938 3.8090763092041016
1.5805269479751587 0.04513702914118767 5.731015682220459
1.0609666109085083 1.1142657995224 3.7886581420898438
1.178852915763855 1.2246037721633911 4.194183826446533
1.6363314390182495 0.14866863191127777 5.812667369842529
1.6173179149627686 -0.04413890093564987 5.7266058921813965
1.6323972940444946 0.03759368881583214 5.772838115692139
1.6363033056259155 0.06504907459020615 5.755517959594727
1.639799952507019 0.042234379798173904 5.760725498199463
1.5402144193649292 1.1106116771697998 5.396576404571533
1.1542788743972778 1.7585114240646362 4.038067817687988
1.0847975015640259 1.0965646505355835 3.790369987487793
1.087517261505127 1.1010984182357788 3.793508291244507
1.1579196453094482 1.7358415126800537 4.028040409088135
1.6081448793411255 1.064125895500183 5.593974590301514
1.5430511236190796 1.132440209388733 5.3341474533081055
1.1718286275863647 1.763556957244873 4.040450096130371
1.1799439191818237 1.799256682395935 4.058656692504883
1.1753761768341064 1.7524651288986206 4.036346435546875
1.1434508562088013 1.612941861152649 3.926300287246704
1.17676842212677 1.7479329109191895 4.037184238433838
1.5934518575668335 -0.004406521562486887 5.460648536682129
1.1859016418457031 1.7849400043487549 4.051673889160156
1.1499409675598145 1.611072301864624 3.9228949546813965
1.153088092803955 1.5991837978363037 3.9172167778015137
1.1959335803985596 1.7938852310180664 4.058984756469727
1.1157232522964478 1.1150833368301392 3.7832655906677246
1.1914647817611694 1.7552472352981567 4.036167144775391
1.6304222345352173 -0.09661117196083069 5.513586521148682
1.5658118724822998 1.1439565420150757 5.293266773223877
1.1941204071044922 1.7470004558563232 4.031786918640137
1.6244815587997437 -0.023196237161755562 5.469298839569092
1.6609022617340088 1.067604422569275 5.5837082862854
1.626495599746704 -0.002008118201047182 5.465137004852295
1.6255583763122559 -0.017273345962166786 5.461470603942871
1.5938822031021118 1.1257025003433228 5.353456497192383
1.5973646640777588 1.1211153268814087 5.364987373352051
1.2078708410263062 1.788012981414795 4.0525898933410645
1.1341111660003662 1.0856506824493408 3.8045666217803955
1.2105860710144043 1.7952728271484375 4.058797359466553
1.5928936004638672 1.131403923034668 5.339111328125
1.6278561353683472 -0.30453428626060486 5.456161975860596
1.2129966020584106 1.8086750507354736 4.0650458335876465
1.594865322113037 1.1354453563690186 5.332803249359131
1.2069121599197388 1.7498091459274292 4.035399913787842
1.1305862665176392 1.1133273839950562 3.7798573970794678
1.1772714853286743 1.6270819902420044 3.934471368789673
1.6280237436294556 -0.41213712096214294 5.440082550048828
1.212028980255127 1.7664942741394043 4.0477986335754395
1.2156074047088623 1.7931636571884155 4.057886600494385
1.1848605871200562 1.6523436307907104 3.951887607574463
1.2155063152313232 1.768349289894104 4.045341491699219
1.6433229446411133 -0.1966218501329422 5.4688801765441895
1.1813403367996216 1.6175884008407593 3.927912712097168
1.1791605949401855 1.60719895362854 3.92037296295166
1.6339776515960693 -0.5983906388282776 5.427647113800049
1.6192220449447632 -0.9115569591522217 5.377089023590088
1.1403019428253174 1.1030832529067993 3.7861318588256836
1.219670295715332 1.7614473104476929 4.041628360748291
1.7049126625061035 0.9186740517616272 5.648481845855713
1.7111907005310059 0.9698712825775146 5.664586544036865
1.1847752332687378 1.6067932844161987 3.916917324066162
1.1889009475708008 1.6177815198898315 3.9277596473693848
1.1973835229873657 1.65720534324646 3.954193353652954
1.71232008934021 0.9177669286727905 5.648421764373779
1.634350061416626 -0.9214133024215698 5.39052152633667
1.228298306465149 1.7887611389160156 4.0512495040893555
1.2004209756851196 1.662623405456543 3.9576902389526367
1.2315794229507446 1.7979484796524048 4.0604023933410645
1.648988127708435 -0.5663385391235352 5.4245991706848145
1.1966001987457275 1.6046913862228394 3.9182138442993164
1.65103018283844 -0.7837722897529602 5.402364730834961
1.1999143362045288 1.6161673069000244 3.9259984493255615
1.2388545274734497 1.774350881576538 4.0492048263549805
1.2003324031829834 1.6011403799057007 3.9189860820770264
1.6405435800552368 -1.2278151512145996 5.355130672454834
1.2386003732681274 1.7661198377609253 4.041707515716553
1.2387261390686035 1.745195746421814 4.032009601593018
1.2070274353027344 1.6153751611709595 3.9259941577911377
1.6253786087036133 1.1541613340377808 5.2855377197265625
1.2460880279541016 1.778714656829834 4.049438953399658
1.2435309886932373 1.7656835317611694 4.040302753448486
1.2454497814178467 1.7653650045394897 4.04551362991333
1.2453932762145996 1.7719179391860962 4.044087886810303
1.6572344303131104 -1.3616149425506592 5.376344680786133
1.2444695234298706 1.7533183097839355 4.036403656005859
1.2227305173873901 1.6550445556640625 3.955867052078247
1.216275691986084 1.625609278678894 3.9200782775878906
1.2301424741744995 1.6528462171554565 3.9518232345581055
1.2195823192596436 1.6038552522659302 3.917574644088745
1.6512659788131714 1.1386796236038208 5.303853511810303
1.1791319847106934 1.1040195226669312 3.782975673675537
1.1772338151931763 1.1106661558151245 3.7767200469970703
1.2371221780776978 1.6407686471939087 3.943450450897217
1.2320849895477295 1.6078433990478516 3.9229912757873535
1.2398651838302612 1.6340104341506958 3.942208766937256
1.2459505796432495 1.6554533243179321 3.953953266143799
1.23965585231781 1.6249277591705322 3.9336705207824707
1.250280737876892 1.6453571319580078 3.9430055618286133
1.2478203773498535 1.6100027561187744 3.923938751220703
1.323575735092163 2.023867607116699 4.161996841430664
1.2560712099075317 1.642647624015808 3.944967031478882
1.2051095962524414 1.1124258041381836 3.7798004150390625
1.8193187713623047 -0.13831649720668793 5.704082489013672
1.2079898118972778 1.1064653396606445 3.7833595275878906
1.2091150283813477 1.1037462949752808 3.7806332111358643
1.2096259593963623 1.114684820175171 3.7755391597747803
1.262996792793274 1.633873701095581 3.9385271072387695
1.2126356363296509 1.1105886697769165 3.7774746417999268
1.2673707008361816 1.6416420936584473 3.9463999271392822
1.2176424264907837 1.0971686840057373 3.787609577178955
1.2702687978744507 1.6489391326904297 3.947028636932373
1.2162525653839111 1.11235773563385 3.7719969749450684
1.2735592126846313 1.6454237699508667 3.949431896209717
1.2820408344268799 1.649465799331665 3.950725793838501
1.9499711990356445 2.9774978160858154 5.998904705047607
1.232529640197754 1.1072354316711426 3.77852463722229
1.9148344993591309 1.0522220134735107 5.868619918823242
2.0064661502838135 2.9520246982574463 6.1485700607299805
1.9832277297973633 2.9608335494995117 6.066648006439209
1.9229437112808228 1.0416167974472046 5.8647589683532715
1.9231646060943604 1.0527533292770386 5.861577033996582
1.9934860467910767 2.9662890434265137 6.070363998413086
1.7473318576812744 1.1933783292770386 5.293213367462158
1.9361597299575806 1.039392352104187 5.863265514373779
1.248120665550232 1.1107221841812134 3.777935266494751
2.0256240367889404 2.9588027000427246 6.104552268981934
2.011075496673584 2.972503185272217 6.042316913604736
2.0214531421661377 2.9794270992279053 6.014448165893555
1.7745025157928467 1.1805680990219116 5.262498378753662
2.029230833053589 2.9750349521636963 6.0095953941345215
2.0485899448394775 2.88284969329834 6.05376672744751
2.0374536514282227 2.974277973175049 6.010141372680664
2.0337369441986084 2.972630262374878 5.993270397186279
2.054157018661499 2.9733223915100098 6.050197124481201
1.9438520669937134 0.2076016664505005 5.661564826965332
1.8024702072143555 1.1819477081298828 5.227074146270752
1.9835448265075684 0.02457926981151104 5.7460036277771
1.9900145530700684 0.01972467079758644 5.745321273803711
1.9921008348464966 0.007637443952262402 5.746951580047607
1.826189637184143 1.1782782077789307 5.247576713562012
1.8144245147705078 1.2072051763534546 5.210111618041992
2.0117027759552 0.03736996278166771 5.771134853363037
2.0087010860443115 0.08961743116378784 5.7602972984313965
2.006140947341919 0.003394693834707141 5.751640319824219
2.00858473777771 0.011529205366969109 5.756232738494873
2.0176448822021484 0.10879401117563248 5.765631675720215
2.0109715461730957 -0.06947073340415955 5.745025157928467
1.9997191429138184 -0.2263375073671341 5.710625171661377
2.1148765087127686 2.975811004638672 6.036077976226807
2.007291078567505 -0.10722650587558746 5.727799892425537
2.020233392715454 0.11470712721347809 5.762345790863037
2.1119372844696045 2.9837169647216797 6.019055366516113
2.025730609893799 0.08470792323350906 5.7604146003723145
2.0250496864318848 0.09598423540592194 5.75581693649292
2.0147311687469482 -0.14280100166797638 5.715840816497803
2.1215834617614746 2.9794864654541016 6.014285564422607
2.028320550918579 0.0256425142288208 5.747588157653809
1.3374401330947876 1.1099352836608887 3.786020040512085
2.1632063388824463 2.9579761028289795 6.122889518737793
2.0355255603790283 0.0448850616812706 5.7530837059021
2.032025098800659 0.031056402251124382 5.742216110229492
2.1287999153137207 2.965784788131714 6.015241622924805
2.0367727279663086 0.0842433050274849 5.753839492797852
2.0314438343048096 -0.02256680466234684 5.733322620391846
2.0300028324127197 -0.11465474963188171 5.715941429138184
2.02238392829895 -0.296103835105896 5.691337585449219
2.0355849266052246 -0.10718051344156265 5.724073886871338
2.0469253063201904 0.08942615240812302 5.755120754241943
2.009284496307373 -0.5549901127815247 5.647091865539551
2.138157844543457 2.9785547256469727 6.001035690307617
2.0338292121887207 -0.3075657784938812 5.684208869934082
1.9887878894805908 -1.033800721168518 5.553501605987549
2.02365779876709 -0.5546578764915466 5.642671585083008
2.0108389854431152 -0.8979083299636841 5.597795009613037
2.0404162406921387 -0.35563358664512634 5.674549579620361
2.1859452724456787 2.966787338256836 6.070511817932129
2.2123801708221436 2.9644935131073 6.137445449829102
2.0081756114959717 -0.9498492479324341 5.569095134735107
2.1628637313842773 2.978224277496338 5.985926151275635
2.0049121379852295 -1.1156338453292847 5.537243366241455
1.8738980293273926 1.21157705783844 5.1743950843811035
2.0197582244873047 -0.9314932227134705 5.576302528381348
2.0293614864349365 -0.8106546998023987 5.594037055969238
2.0218985080718994 -1.000686526298523 5.5630106925964355
2.0234904289245605 -0.9779847860336304 5.564427375793457
2.02489972114563 -0.9543671011924744 5.5660176277160645
2.021907091140747 -1.055247187614441 5.553179740905762
2.0354199409484863 -0.8066079616546631 5.589613914489746
2.0206902027130127 -1.0705692768096924 5.544540882110596
2.036216974258423 -0.9001133441925049 5.576008319854736
2.0306503772735596 -1.006446123123169 5.555074214935303
2.016140937805176 -1.2304372787475586 5.514197826385498
2.0218632221221924 -1.1677067279815674 5.524533271789551
1.8986363410949707 1.2157801389694214 5.178931713104248
1.4007576704025269 1.0885909795761108 3.8182382583618164
2.021482467651367 -1.272011160850525 5.505246162414551
1.9778547286987305 -1.7449105978012085 5.386003494262695
2.029927968978882 -1.1470160484313965 5.524256706237793
2.2986490726470947 2.937960147857666 6.250520706176758
2.251985549926758 2.9660396575927734 6.119383811950684
1.4065556526184082 1.091793179512024 3.820718288421631
2.026540756225586 -1.2730873823165894 5.500842571258545
2.0361344814300537 -1.1651889085769653 5.515575408935547
2.056781530380249 0.22305259108543396 5.539951801300049
2.0136947631835938 -1.6191571950912476 5.418163776397705
2.03491473197937 -1.3823232650756836 5.465900897979736
2.280661106109619 2.9685142040252686 6.101400375366211
2.0710458755493164 -1.0879526138305664 5.535215377807617
2.022019624710083 -1.6760928630828857 5.404134273529053
2.2794768810272217 2.974815607070923 6.083703994750977
2.0460364818573 -1.4401823282241821 5.453426837921143
1.9919549226760864 -2.111466884613037 5.305194854736328
1.4308865070343018 1.1067698001861572 3.804542303085327
2.0454981327056885 -1.5076709985733032 5.438476085662842
2.286092758178711 2.975498676300049 6.074848175048828
2.0383896827697754 -1.7185782194137573 5.39522123336792
2.041255235671997 -1.660523533821106 5.4007368087768555
2.0709140300750732 -1.3636603355407715 5.475042343139648
1.7465263605117798 2.0495553016662598 4.612729549407959
2.0734500885009766 -1.5275152921676636 5.439727783203125
2.343029737472534 2.965074300765991 6.133315563201904
2.306497812271118 2.9751384258270264 6.037540435791016
2.362809658050537 2.9591867923736572 6.184079647064209
2.322451114654541 2.9773805141448975 6.037520885467529
2.3121495246887207 2.9811489582061768 6.000342845916748
2.3336989879608154 2.9818191528320312 6.043242454528809
2.357701063156128 2.968812942504883 6.102081775665283
