ply
format ascii 1.0
element vertex 831
property float x
property float y
property float z
end_header
-0.8651174306869507 0.888718843460083 5.748867988586426
-0.8556720614433289 0.6207563877105713 5.691717147827148
-0.8559753894805908 0.6825193166732788 5.707204818725586
-0.854588508605957 0.6640868186950684 5.699278831481934
-0.858211874961853 0.7984932661056519 5.7305684089660645
-0.8541253805160522 0.7499455213546753 5.721238136291504
-0.8806912302970886 2.906670093536377 6.153814792633057
-0.8624926209449768 2.947908639907837 6.026864051818848
-0.8645943403244019 2.9157111644744873 6.150670051574707
-0.8658470511436462 2.9119503498077393 6.160854339599609
-0.8490306735038757 2.934892416000366 6.0493927001953125
-0.8408437371253967 2.922468900680542 6.005155563354492
-0.8489904403686523 2.9552760124206543 6.063922882080078
-0.8550806641578674 2.9053590297698975 6.152925491333008
-0.8418784737586975 2.389270067214966 6.061675071716309
-0.8360844850540161 2.9424967765808105 6.049052715301514
-0.8309202790260315 2.945148229598999 6.040641784667969
-0.8175331950187683 2.965618133544922 5.9819655418396
-0.8212425112724304 2.9572548866271973 6.033411502838135
-0.8134766817092896 2.9636571407318115 5.990966796875
-0.8139011263847351 2.9610402584075928 6.012860298156738
-0.8315075635910034 2.92279314994812 6.153396129608154
-0.8123047947883606 2.958976984024048 6.04595422744751
-0.819150447845459 2.950119733810425 6.106723308563232
-0.8206765651702881 2.93308687210083 6.1715521812438965
-0.8060352802276611 2.1759700775146484 6.061722278594971
-0.8336137533187866 2.907132387161255 6.303836345672607
-0.8233119249343872 2.9201414585113525 6.249644756317139
-0.8111647963523865 2.934832811355591 6.175178527832031
-0.7724429368972778 2.970571994781494 5.9672441482543945
-0.8025602698326111 2.9312896728515625 6.200654983520508
-0.7522052526473999 2.445460557937622 5.908877849578857
-0.5461745858192444 2.034501791000366 5.352679252624512
-0.5446687340736389 2.0525143146514893 5.3536481857299805
-0.5404186248779297 2.0593552589416504 5.354659557342529
-0.5404186248779297 2.0593552589416504 5.354659557342529
-0.539804220199585 2.124732494354248 5.371732234954834
-0.5394613146781921 2.155914783477783 5.37492036819458
-0.5352750420570374 2.0512070655822754 5.348435878753662
-0.5352337956428528 2.161397695541382 5.3734941482543945
-0.5398980379104614 2.410487413406372 5.422764301300049
-0.5361829400062561 2.264195680618286 5.393861770629883
-0.5361829400062561 2.264195680618286 5.393861770629883
-0.537757158279419 2.3836238384246826 5.420787334442139
-0.5337589383125305 1.7879618406295776 5.3828816413879395
-0.5332685112953186 2.25553297996521 5.3887457847595215
-0.5322187542915344 2.2693305015563965 5.389982223510742
-0.5364204049110413 2.508863687515259 5.438352108001709
-0.5306198000907898 2.2900543212890625 5.390297889709473
-0.5359346270561218 2.557471513748169 5.449060440063477
-0.532084584236145 2.3729233741760254 5.410280227661133
-0.532084584236145 2.3729233741760254 5.410280227661133
-0.5376482009887695 2.6511783599853516 5.473134517669678
-0.5241712927818298 2.052828788757324 5.343454360961914
-0.5287960171699524 1.7690950632095337 5.408930778503418
-0.5300326943397522 2.5597524642944336 5.443050384521484
-0.531269371509552 2.6514534950256348 5.467430591583252
-0.525696337223053 2.511686325073242 5.430307865142822
-0.5162126421928406 2.080186128616333 5.335926055908203
-0.5166546106338501 2.1121740341186523 5.344426155090332
-0.5272487998008728 2.637789249420166 5.45658016204834
-0.5294756293296814 2.72900652885437 5.486356258392334
-0.522704005241394 2.630662679672241 5.45535945892334
-0.509216845035553 2.0652575492858887 5.333487033843994
-0.5099952220916748 2.1227266788482666 5.3435750007629395
-0.5150688290596008 2.3927483558654785 5.401309013366699
-0.5200499296188354 2.7183003425598145 5.469627380371094
-0.5075746178627014 2.1296019554138184 5.344286918640137
-0.5142665505409241 2.5079574584960938 5.420547962188721
-0.514785647392273 2.572080135345459 5.43528938293457
-0.5049057602882385 2.0968353748321533 5.336495876312256
-0.5052905678749084 2.1517512798309326 5.341136932373047
-0.5038758516311646 2.105109214782715 5.337054252624512
-0.5016630291938782 2.1139750480651855 5.336444854736328
-0.501272976398468 2.1393520832061768 5.341427326202393
-0.49983176589012146 2.0609865188598633 5.329215049743652
-0.49983176589012146 2.0609865188598633 5.329215049743652
-0.5009578466415405 2.126483917236328 5.343108654022217
-0.5009578466415405 2.126483917236328 5.343108654022217
-0.5009578466415405 2.126483917236328 5.343108654022217
-0.5113371014595032 2.6987414360046387 5.462309837341309
-0.5106396079063416 2.704472780227661 5.460103988647461
-0.5059722065925598 2.577561140060425 5.430384635925293
-0.494827538728714 2.076312303543091 5.324279308319092
-0.49970898032188416 2.4832653999328613 5.402503490447998
-0.5002570152282715 2.56837797164917 5.424078464508057
-0.5002570152282715 2.56837797164917 5.424078464508057
-0.49690598249435425 2.392930507659912 5.389092922210693
-0.5022459030151367 2.7009012699127197 5.45836877822876
-0.4890035390853882 2.1191983222961426 5.335733413696289
-0.48773685097694397 2.1065852642059326 5.327942371368408
-0.4876270592212677 2.1281213760375977 5.338216781616211
-0.4862554669380188 2.08723783493042 5.324557304382324
-0.49504145979881287 2.559279203414917 5.424063682556152
-0.49504145979881287 2.559279203414917 5.424063682556152
-0.4864773154258728 2.15075945854187 5.336525917053223
-0.4860175848007202 2.14030122756958 5.336489200592041
-0.4860175848007202 2.14030122756958 5.336489200592041
-0.4861997365951538 2.163076162338257 5.339736461639404
-0.4935457110404968 2.6500837802886963 5.440058708190918
-0.49070119857788086 2.5441184043884277 5.417930603027344
-0.4822903871536255 2.17933988571167 5.338359355926514
-0.49147504568099976 2.6806883811950684 5.442174434661865
-0.4916355013847351 2.689354658126831 5.4475226402282715
-0.48156771063804626 2.1727354526519775 5.340648174285889
-0.4885552227497101 2.572742462158203 5.426851749420166
-0.4790266156196594 2.1848907470703125 5.339365005493164
-0.48656129837036133 2.611298084259033 5.428163051605225
-0.475454717874527 2.047914505004883 5.3122735023498535
-0.4760628342628479 2.1321401596069336 5.330688953399658
-0.4761412441730499 2.126176595687866 5.332620620727539
-0.4761412441730499 2.126176595687866 5.332620620727539
-0.48158279061317444 2.490983009338379 5.401052474975586
-0.48158279061317444 2.490983009338379 5.401052474975586
-0.4846765995025635 2.6995534896850586 5.446497917175293
-0.4745655953884125 2.1656558513641357 5.3389811515808105
-0.4730634093284607 2.156247615814209 5.332965850830078
-0.513133704662323 0.3781120777130127 5.788804531097412
-0.4723299741744995 2.1385226249694824 5.333649635314941
-0.4800224304199219 2.6360809803009033 5.427225589752197
-0.4789322018623352 2.620016098022461 5.421468734741211
-0.47952646017074585 2.707521915435791 5.448037624359131
-0.47432398796081543 2.4739506244659424 5.395284652709961
-0.472206711769104 2.3922135829925537 5.374403953552246
-0.472206711769104 2.3922135829925537 5.374403953552246
-0.4667622447013855 2.1360695362091064 5.326183319091797
-0.4667622447013855 2.1360695362091064 5.326183319091797
-0.47134125232696533 2.4808621406555176 5.395225524902344
-0.47373780608177185 2.6238479614257812 5.431797981262207
-0.47064560651779175 2.545698404312134 5.409576892852783
-0.4716750979423523 2.6284313201904297 5.426657199859619
-0.4667823612689972 2.4923806190490723 5.374102592468262
-0.4694841504096985 2.641157627105713 5.427757740020752
-0.46960264444351196 2.6251070499420166 5.43079948425293
-0.46960264444351196 2.6251070499420166 5.43079948425293
-0.46960264444351196 2.6251070499420166 5.43079948425293
-0.46657344698905945 2.6116299629211426 5.421947479248047
-0.4583722949028015 2.141122341156006 5.327705383300781
-0.4584474265575409 2.1341142654418945 5.329582691192627
-0.46188443899154663 2.3357770442962646 5.369786739349365
-0.46743762493133545 2.6827497482299805 5.436291694641113
-0.45740562677383423 2.1498475074768066 5.325852870941162
-0.4636489748954773 2.5471041202545166 5.406404972076416
-0.46513229608535767 2.701702833175659 5.4382195472717285
-0.46278005838394165 2.6164252758026123 5.419338226318359
-0.4566364288330078 2.2848563194274902 5.354255199432373
-0.4532623291015625 2.18351149559021 5.337855815887451
-0.4532623291015625 2.18351149559021 5.337855815887451
-0.455564945936203 2.4312291145324707 5.376608371734619
-0.4576076865196228 2.546090841293335 5.404593467712402
-0.4576076865196228 2.546090841293335 5.404593467712402
-0.4586441218852997 2.6550076007843018 5.430980205535889
-0.45565205812454224 2.608663558959961 5.417426109313965
-0.455791711807251 2.677248001098633 5.430894374847412
-0.4552801549434662 2.7025868892669678 5.436220645904541
-0.44431519508361816 2.1841673851013184 5.330318927764893
-0.4531741738319397 2.68483829498291 5.438052654266357
-0.4474484324455261 2.433805465698242 5.381448268890381
-0.44678279757499695 2.46662974357605 5.379624366760254
-0.4495166838169098 2.6087210178375244 5.414892196655273
-0.4465659260749817 2.4407143592834473 5.383029460906982
-0.4465659260749817 2.4407143592834473 5.383029460906982
-0.4498037099838257 2.6631247997283936 5.426651954650879
-0.44334742426872253 2.284175395965576 5.349895477294922
-0.4471430778503418 2.5113089084625244 5.398212909698486
-0.44479891657829285 2.4886817932128906 5.386113166809082
-0.439884215593338 2.249100685119629 5.3431572914123535
-0.44384056329727173 2.545114517211914 5.402210235595703
-0.44384056329727173 2.545114517211914 5.402210235595703
-0.4381785988807678 2.179441452026367 5.333281517028809
-0.4439838230609894 2.606642246246338 5.41270637512207
-0.44100362062454224 2.442436456680298 5.377925872802734
-0.4451850652694702 2.695613145828247 5.433535099029541
-0.4363882839679718 2.197666883468628 5.3367509841918945
-0.4363882839679718 2.197666883468628 5.3367509841918945
-0.4371718764305115 2.4310059547424316 5.379192352294922
-0.43815189599990845 2.5119128227233887 5.395641326904297
-0.43197596073150635 2.1417441368103027 5.324727535247803
-0.43197596073150635 2.1417441368103027 5.324727535247803
-0.434908926486969 2.370102882385254 5.3685078620910645
-0.4293209910392761 2.09663987159729 5.31497859954834
-0.4293209910392761 2.09663987159729 5.31497859954834
-0.44095516204833984 2.353407621383667 5.465071201324463
-0.43758296966552734 2.702329158782959 5.4349684715271
-0.4361746311187744 2.6302077770233154 5.421606540679932
-0.42826807498931885 2.2488601207733154 5.3424577713012695
-0.4292842745780945 2.3653457164764404 5.366336822509766
-0.43224379420280457 2.553924560546875 5.408172607421875
-0.4335203170776367 2.6924333572387695 5.426433563232422
-0.42911165952682495 2.412468910217285 5.372472286224365
-0.4245198667049408 2.0984609127044678 5.315093040466309
-0.43134093284606934 2.544733762741089 5.403027534484863
-0.4318525493144989 2.615981101989746 5.415020942687988
-0.4320448338985443 2.6488358974456787 5.4202961921691895
-0.43228453397750854 2.702404737472534 5.434497833251953
-0.4290313720703125 2.516427516937256 5.394985675811768
-0.43033677339553833 2.681002616882324 5.4254961013793945
-0.4290772080421448 2.6245980262756348 5.418627738952637
-0.4290772080421448 2.6245980262756348 5.418627738952637
-0.4266515374183655 2.492147445678711 5.388542175292969
-0.42893293499946594 2.668710470199585 5.425167083740234
-0.42288845777511597 2.4687371253967285 5.390412330627441
-0.42288845777511597 2.4687371253967285 5.390412330627441
-0.41968822479248047 2.296600341796875 5.35502815246582
-0.42175641655921936 2.4788665771484375 5.386039733886719
-0.4164331257343292 2.166670560836792 5.322330951690674
-0.4238624572753906 2.6860945224761963 5.42921257019043
-0.4215419292449951 2.6298089027404785 5.4176177978515625
-0.4205579459667206 2.611673593521118 5.4130940437316895
-0.4186587929725647 2.5059688091278076 5.393526077270508
-0.41798096895217896 2.4700233936309814 5.385563373565674
-0.41659116744995117 2.417649507522583 5.377199172973633
-0.41309380531311035 2.4297375679016113 5.377842426300049
-0.41300514340400696 2.411283016204834 5.378119468688965
-0.4161737561225891 2.648698091506958 5.422183036804199
-0.4161737561225891 2.648698091506958 5.422183036804199
-0.4153710901737213 2.6061830520629883 5.413407802581787
-0.41159942746162415 2.369037628173828 5.366360187530518
-0.4085634648799896 2.1515302658081055 5.329763889312744
-0.4150291681289673 2.625852346420288 5.416048049926758
-0.41609659790992737 2.6839165687561035 5.430968761444092
-0.4124440848827362 2.6515743732452393 5.416688919067383
-0.4108738601207733 2.563549518585205 5.405315399169922
-0.4041028916835785 2.103017807006836 5.316416263580322
-0.409270703792572 2.4781949520111084 5.394223213195801
-0.41024547815322876 2.624237298965454 5.41912317276001
-0.4034275710582733 2.1655898094177246 5.333380222320557
-0.4094190001487732 2.700334072113037 5.428566932678223
-0.4081166088581085 2.611401319503784 5.413753032684326
-0.4070344567298889 2.6803977489471436 5.429940223693848
-0.40036526322364807 2.2599072456359863 5.34799861907959
-0.40036526322364807 2.2599072456359863 5.34799861907959
-0.3961120843887329 2.1016979217529297 5.31685209274292
-0.40259113907814026 2.6029186248779297 5.411938190460205
-0.402210533618927 2.6323230266571045 5.414867401123047
-0.402210533618927 2.6323230266571045 5.414867401123047
-0.401982843875885 2.6220715045928955 5.417800426483154
-0.3918916881084442 2.072000741958618 5.312048435211182
-0.39327508211135864 2.2506630420684814 5.348621845245361
-0.39574795961380005 2.4708991050720215 5.387674808502197
-0.395264208316803 2.501593589782715 5.392613887786865
-0.39507487416267395 2.4807844161987305 5.390927791595459
-0.38912147283554077 2.098332166671753 5.316340446472168
-0.38852134346961975 2.088305711746216 5.315378665924072
-0.38950446248054504 2.1650867462158203 5.332312107086182
-0.3952583968639374 2.6048789024353027 5.41351318359375
-0.3967030644416809 2.7019903659820557 5.434210777282715
-0.39481887221336365 2.6155972480773926 5.417360782623291
-0.39481887221336365 2.6155972480773926 5.417360782623291
-0.39127999544143677 2.3754401206970215 5.370520114898682
-0.38606172800064087 2.063082218170166 5.310871601104736
-0.3857569098472595 2.0810365676879883 5.3163743019104
-0.3871382176876068 2.25538969039917 5.347009181976318
-0.38439247012138367 2.104562520980835 5.322116851806641
-0.3886588215827942 2.559520959854126 5.399129390716553
-0.3893873989582062 2.669719696044922 5.429409503936768
-0.3893873989582062 2.669719696044922 5.429409503936768
-0.3849972188472748 2.368602752685547 5.369901657104492
-0.3874421715736389 2.6480698585510254 5.42304801940918
-0.3874421715736389 2.6480698585510254 5.42304801940918
-0.38032421469688416 2.1620962619781494 5.331555366516113
-0.3859623968601227 2.6577534675598145 5.424168586730957
-0.3809847831726074 2.314145088195801 5.358582973480225
-0.38331079483032227 2.499361991882324 5.392238616943359
-0.382997989654541 2.458390951156616 5.3879570960998535
-0.3802533745765686 2.3273916244506836 5.3605170249938965
-0.3788663446903229 2.3721044063568115 5.364899158477783
-0.37669917941093445 2.1732068061828613 5.337452411651611
-0.3765554130077362 2.1928348541259766 5.341873645782471
-0.3791046738624573 2.4715867042541504 5.386895656585693
-0.37807777523994446 2.4545812606811523 5.389419078826904
-0.38019049167633057 2.697390079498291 5.42948055267334
-0.38019049167633057 2.697390079498291 5.42948055267334
-0.3788188397884369 2.6212046146392822 5.421069622039795
-0.3780093193054199 2.669445276260376 5.428496360778809
-0.3780093193054199 2.669445276260376 5.428496360778809
-0.3722098767757416 2.3021304607391357 5.361233234405518
-0.3687947392463684 2.078533887863159 5.316770076751709
-0.3687947392463684 2.078533887863159 5.316770076751709
-0.3698498606681824 2.179295301437378 5.342142581939697
-0.3709620237350464 2.3156685829162598 5.365592956542969
-0.3709620237350464 2.3156685829162598 5.365592956542969
-0.3740939497947693 2.63860821723938 5.422516345977783
-0.3712083101272583 2.464752435684204 5.382900238037109
-0.3683552145957947 2.191929340362549 5.3417205810546875
-0.3697684705257416 2.327130079269409 5.365227699279785
-0.3670934736728668 2.1707382202148438 5.335836887359619
-0.3712877631187439 2.5792794227600098 5.411064624786377
-0.3714800477027893 2.6204962730407715 5.420473575592041
-0.36581623554229736 2.185116767883301 5.341304779052734
-0.3641904890537262 2.0875699520111084 5.320600986480713
-0.3661588132381439 2.232146978378296 5.353833198547363
-0.36346232891082764 2.073568344116211 5.31825590133667
-0.36583802103996277 2.300137758255005 5.356474876403809
-0.3631013333797455 2.101752758026123 5.3257317543029785
-0.36942628026008606 2.6536285877227783 5.426510810852051
-0.36638304591178894 2.4243593215942383 5.384126663208008
-0.3677881062030792 2.544053792953491 5.408011436462402
-0.3677881062030792 2.544053792953491 5.408011436462402
-0.3688187301158905 2.699341058731079 5.43685245513916
-0.3688187301158905 2.699341058731079 5.43685245513916
-0.3687421977519989 1.6913024187088013 5.456563949584961
-0.3610267639160156 2.234626293182373 5.349444389343262
-0.3616197109222412 2.3149757385253906 5.367679119110107
-0.3616197109222412 2.3149757385253906 5.367679119110107
-0.36411818861961365 2.5567877292633057 5.410829067230225
-0.36411818861961365 2.5567877292633057 5.410829067230225
-0.3589884042739868 2.1615078449249268 5.339519500732422
-0.36495450139045715 2.6627883911132812 5.431016445159912
-0.36017754673957825 2.342163562774658 5.366501331329346
-0.36291971802711487 2.5443971157073975 5.408108711242676
-0.3629641532897949 2.5975756645202637 5.423089027404785
-0.36340877413749695 2.6701276302337646 5.4347639083862305
-0.35848268866539 2.353952169418335 5.36844539642334
-0.35848268866539 2.353952169418335 5.36844539642334
-0.36110779643058777 2.5897860527038574 5.417227745056152
-0.3549850881099701 2.0754425525665283 5.32632303237915
-0.35492148995399475 2.100404739379883 5.328671932220459
-0.3605860769748688 2.657567024230957 5.431073188781738
-0.3605860769748688 2.657567024230957 5.431073188781738
-0.35516563057899475 2.301917552947998 5.3655171394348145
-0.35324573516845703 2.181088924407959 5.341823101043701
-0.35953792929649353 2.700195550918579 5.446332931518555
-0.356662392616272 2.575054407119751 5.420591354370117
-0.350602924823761 2.158139228820801 5.335962772369385
-0.34857431054115295 2.1023900508880615 5.3295793533325195
-0.35109570622444153 2.3268158435821533 5.373592376708984
-0.3500359058380127 2.3074066638946533 5.367588043212891
-0.3462536931037903 2.0867245197296143 5.327524662017822
-0.3524227738380432 2.6357340812683105 5.43904447555542
-0.3496555685997009 2.5028152465820312 5.405590057373047
-0.34477174282073975 2.1351869106292725 5.332741737365723
-0.34432366490364075 2.077955961227417 5.326759338378906
-0.34796252846717834 2.4055166244506836 5.384576797485352
-0.3472425043582916 2.3482413291931152 5.373775959014893
-0.34693393111228943 2.458754539489746 5.408409595489502
-0.3428077697753906 2.1623446941375732 5.351024150848389
-0.34394192695617676 2.3143117427825928 5.374234676361084
-0.34394192695617676 2.3143117427825928 5.374234676361084
-0.34729644656181335 2.665226697921753 5.433111190795898
-0.3474002480506897 2.718240976333618 5.452680587768555
-0.34324517846107483 2.4517695903778076 5.3946027755737305
-0.34471553564071655 2.578932523727417 5.424238681793213
-0.34471553564071655 2.578932523727417 5.424238681793213
-0.3385494649410248 2.0835344791412354 5.329484939575195
-0.3392574191093445 2.2950990200042725 5.370536804199219
-0.3415197730064392 2.076456069946289 5.415369510650635
-0.3420623540878296 2.653548240661621 5.435625076293945
-0.3353678286075592 2.09920597076416 5.336345195770264
-0.33716851472854614 2.1667816638946533 5.368337631225586
-0.34162798523902893 2.665172576904297 5.4416656494140625
-0.33701086044311523 2.2545676231384277 5.3692402839660645
-0.336184561252594 2.2068428993225098 5.35675573348999
-0.3399319350719452 2.5464119911193848 5.416721820831299
-0.33734917640686035 2.3382363319396973 5.383204460144043
-0.3369504511356354 2.330353260040283 5.377805709838867
-0.33659225702285767 2.3021175861358643 5.37692928314209
-0.3397442698478699 2.5674123764038086 5.427945137023926
-0.3394956886768341 2.5595827102661133 5.426703453063965
-0.33418795466423035 2.2771973609924316 5.370839595794678
-0.3334673047065735 2.3058111667633057 5.373362064361572
-0.3356076180934906 2.6596567630767822 5.4394025802612305
-0.32896316051483154 1.8207509517669678 5.33201265335083
-0.32896316051483154 1.8207509517669678 5.33201265335083
-0.33108142018318176 2.2626242637634277 5.377256393432617
-0.3295295238494873 2.1814682483673096 5.352988243103027
-0.33064207434654236 2.282397985458374 5.371321201324463
-0.32751426100730896 2.072462320327759 5.336352348327637
-0.3325754702091217 2.5574095249176025 5.420732021331787
-0.33202043175697327 2.545626640319824 5.422024250030518
-0.3267141282558441 2.166717290878296 5.351646423339844
-0.3294203281402588 2.4512805938720703 5.4034199714660645
-0.3294203281402588 2.4512805938720703 5.4034199714660645
-0.32994720339775085 2.5201523303985596 5.416738510131836
-0.3261663317680359 2.222341299057007 5.366243362426758
-0.32464784383773804 2.146303415298462 5.352988243103027
-0.32544782757759094 2.2769575119018555 5.3750152587890625
-0.3229152262210846 2.0761559009552 5.337137222290039
-0.32520949840545654 2.2877683639526367 5.375188827514648
-0.3294200003147125 2.7070813179016113 5.451098918914795
-0.3244282007217407 2.346858263015747 5.387301921844482
-0.32410821318626404 2.322774648666382 5.382177829742432
-0.3258863091468811 2.5471723079681396 5.420806407928467
-0.32231855392456055 2.421138048171997 5.402154445648193
-0.3191515803337097 2.122694253921509 5.353869438171387
-0.3199111819267273 2.2050774097442627 5.371391773223877
-0.32019996643066406 2.226106882095337 5.381751537322998
-0.31835272908210754 2.1941187381744385 5.362731456756592
-0.3172469437122345 2.1582534313201904 5.36220645904541
-0.3173288106918335 2.27824330329895 5.385519027709961
-0.3160419166088104 2.230726480484009 5.370778560638428
-0.3106851875782013 -0.9544099569320679 5.289728164672852
-0.3175451457500458 2.460040807723999 5.41081428527832
-0.316438227891922 2.452681541442871 5.422016620635986
-0.3132859766483307 2.2230613231658936 5.3801774978637695
-0.31185200810432434 2.1440722942352295 5.3595476150512695
-0.31083717942237854 2.1341323852539062 5.3630170822143555
-0.31083717942237854 2.1341323852539062 5.3630170822143555
-0.31431102752685547 2.538986921310425 5.427465915679932
-0.31431102752685547 2.538986921310425 5.427465915679932
-0.312796026468277 2.424598217010498 5.405609607696533
-0.3105975091457367 2.157618522644043 5.369318962097168
-0.310977965593338 2.4398319721221924 5.3995184898376465
-0.3087017834186554 2.1123831272125244 5.364498615264893
-0.3110072612762451 2.4031248092651367 5.407614707946777
-0.3093259930610657 2.278787612915039 5.381997108459473
-0.3076287806034088 2.2753851413726807 5.375025272369385
-0.3095692992210388 2.450162887573242 5.410475254058838
-0.30631282925605774 2.1345601081848145 5.361661911010742
-0.3095621168613434 2.533367872238159 5.430055141448975
-0.3062945008277893 2.2574052810668945 5.385429859161377
-0.3062945008277893 2.2574052810668945 5.385429859161377
-0.30632975697517395 2.2748217582702637 5.39026403427124
-0.30624517798423767 2.387500524520874 5.412556171417236
-0.30522841215133667 2.3258216381073 5.395254135131836
-0.302912175655365 2.1214439868927 5.3669962882995605
-0.3055608570575714 0.014338525012135506 5.433065414428711
-0.30417400598526 2.437487840652466 5.412878513336182
-0.30522024631500244 2.4647672176361084 5.43315315246582
-0.3032363951206207 2.338289499282837 5.400299549102783
-0.30144044756889343 2.1337170600891113 5.370262622833252
-0.30201584100723267 2.392613172531128 5.410974979400635
-0.30230411887168884 2.41752290725708 5.417308330535889
-0.30239832401275635 2.468289613723755 5.426147937774658
-0.30095165967941284 2.3887975215911865 5.4104437828063965
-0.30063772201538086 2.3502249717712402 5.405787944793701
-0.3021260201931 0.01988268829882145 5.432933330535889
-0.3021260201931 0.01988268829882145 5.432933330535889
-0.2992749810218811 2.3774571418762207 5.413580894470215
-0.2982617914676666 2.3616929054260254 5.40762996673584
-0.2951926290988922 2.122446298599243 5.3684000968933105
-0.2946189343929291 2.2803456783294678 5.384601593017578
-0.29796305298805237 -0.029370509088039398 5.447439193725586
-0.29606619477272034 2.4000160694122314 5.416919231414795
-0.29289135336875916 2.1391563415527344 5.373147010803223
-0.29289135336875916 2.1391563415527344 5.373147010803223
-0.29320573806762695 2.1977756023406982 5.385599136352539
-0.2941829264163971 2.350522518157959 5.408287048339844
-0.29238927364349365 2.2152743339538574 5.382522106170654
-0.29270604252815247 2.2475433349609375 5.392205238342285
-0.2928951382637024 1.4618949890136719 5.406010150909424
-0.294480562210083 0.015240644104778767 5.439554214477539
-0.29441118240356445 2.5388617515563965 5.44192361831665
-0.2902538776397705 2.2327449321746826 5.387823581695557
-0.2896455228328705 2.221475124359131 5.387305736541748
-0.2886863648891449 2.2116219997406006 5.388757228851318
-0.29074475169181824 2.4529287815093994 5.43344783782959
-0.29074475169181824 2.4529287815093994 5.43344783782959
-0.2883760631084442 2.2030751705169678 5.390105247497559
-0.2900661528110504 2.5183286666870117 5.436224937438965
-0.2871077060699463 2.121274709701538 5.381343841552734
-0.28907206654548645 -0.012241607531905174 5.422395706176758
-0.28805455565452576 -0.07696383446455002 5.428582668304443
-0.2878187298774719 2.406038284301758 5.4265217781066895
-0.2878187298774719 2.406038284301758 5.4265217781066895
-0.28818970918655396 2.458770990371704 5.433835506439209
-0.28717097640037537 -0.017969833686947823 5.420281887054443
-0.28477078676223755 2.2151803970336914 5.39000940322876
-0.28477078676223755 2.2151803970336914 5.39000940322876
-0.28543734550476074 2.373058795928955 5.42130708694458
-0.2844060957431793 2.2484848499298096 5.404638767242432
-0.2832928001880646 2.175642728805542 5.387667655944824
-0.2841224670410156 2.28194522857666 5.405568599700928
-0.28361183404922485 2.269066095352173 5.403339862823486
-0.28218916058540344 2.151487350463867 5.384582042694092
-0.2851100564002991 2.5124318599700928 5.442911148071289
-0.2832735776901245 2.354288101196289 5.415050506591797
-0.2841852307319641 2.442701816558838 5.4325270652771
-0.2824232876300812 2.3272979259490967 5.419585704803467
-0.28167492151260376 -0.013974067755043507 5.423145294189453
-0.28177952766418457 -0.0746316909790039 5.433846950531006
-0.2830379009246826 2.5536930561065674 5.460092067718506
-0.27997449040412903 2.3328237533569336 5.416386127471924
-0.27599602937698364 2.1279664039611816 5.393373489379883
-0.27515602111816406 2.118685245513916 5.39499044418335
-0.2753678262233734 2.3348746299743652 5.414410591125488
-0.2781147360801697 2.5391488075256348 5.468928813934326
-0.27210626006126404 2.225182056427002 5.40078067779541
-0.2732338011264801 2.317934989929199 5.432249546051025
-0.27065509557724 2.083970785140991 5.388349533081055
-0.27151361107826233 -0.043510571122169495 5.419490337371826
-0.27151361107826233 -0.043510571122169495 5.419490337371826
-0.2721532881259918 2.5580835342407227 5.46492862701416
-0.27046993374824524 -0.03727753460407257 5.433287620544434
-0.26875296235084534 2.181999683380127 5.404618740081787
-0.2681679427623749 2.3172333240509033 5.423541069030762
-0.2694642245769501 2.513300657272339 5.457208156585693
-0.26843520998954773 2.3863024711608887 5.442348003387451
-0.2655342221260071 2.087373971939087 5.389659404754639
-0.2666669189929962 2.223294258117676 5.415208339691162
-0.26652342081069946 2.2163567543029785 5.426351547241211
-0.26440542936325073 2.1838743686676025 5.411596775054932
-0.2654920220375061 2.380852222442627 5.458809852600098
-0.2650938034057617 2.4464831352233887 5.473408222198486
-0.26009511947631836 2.0939128398895264 5.385628700256348
-0.26042836904525757 2.1351449489593506 5.399426460266113
-0.26441052556037903 2.4936022758483887 5.488862037658691
-0.2603360712528229 2.5058958530426025 5.482685089111328
-0.25591811537742615 2.3297860622406006 5.44913387298584
-0.25295761227607727 2.5075623989105225 5.481884956359863
-0.2487601786851883 2.36004638671875 5.473305702209473
-0.24633313715457916 2.046335458755493 5.424094200134277
-0.24625934660434723 2.49277400970459 5.495034217834473
-0.24213264882564545 2.1377816200256348 5.445611953735352
-0.2401641607284546 2.14361572265625 5.440568447113037
-0.2526531517505646 1.8457683324813843 5.727606296539307
-0.21034565567970276 1.5872644186019897 5.707185745239258
-0.18118886649608612 0.04251684620976448 5.597211837768555
-0.1589229553937912 0.06212373450398445 5.615046977996826
-0.14071990549564362 0.30143997073173523 5.664160251617432
-0.1348641961812973 0.241081103682518 5.650262832641602
-0.1348641961812973 0.241081103682518 5.650262832641602
-0.13390742242336273 0.298930287361145 5.661299705505371
-0.13661086559295654 0.850630521774292 5.7767510414123535
-0.13053350150585175 0.8540859818458557 5.775586128234863
-0.13050679862499237 0.8675456047058105 5.775604724884033
-0.12834995985031128 0.9026641845703125 5.764221668243408
-0.12565620243549347 0.23868238925933838 5.652235984802246
-0.12209083139896393 1.7035503387451172 5.674537181854248
-0.12066520005464554 1.549001932144165 5.699099540710449
-0.11990894377231598 1.709579586982727 5.676403999328613
-0.11973034590482712 1.7356345653533936 5.67837381362915
-0.12138203531503677 0.8528599739074707 5.772043704986572
-0.12097934633493423 0.8820334076881409 5.7661967277526855
-0.12047630548477173 0.8618882298469543 5.780704975128174
-0.11724428087472916 1.490846872329712 5.699646472930908
-0.1157962903380394 1.7368136644363403 5.667061805725098
-0.11466491222381592 1.677973985671997 5.685114860534668
-0.1137348860502243 0.8895204663276672 5.769763469696045
-0.11170268803834915 1.6503957509994507 5.689095973968506
-0.10660641640424728 1.5452519655227661 5.700911998748779
-0.10574456304311752 0.865901529788971 5.779845714569092
-0.10368290543556213 1.577109694480896 5.694209098815918
-0.10121242702007294 0.27050697803497314 5.612194538116455
-0.10089065134525299 1.6757458448410034 5.681098937988281
-0.10087692737579346 1.5815174579620361 5.693462371826172
-0.10087692737579346 1.5815174579620361 5.693462371826172
-0.10047699511051178 1.5693360567092896 5.6896867752075195
-0.10046876966953278 1.5382826328277588 5.696981430053711
-0.0973065122961998 1.609615445137024 5.68864107131958
-0.09708845615386963 0.8340378999710083 5.775643348693848
-0.0958959311246872 0.8632994294166565 5.778585910797119
-0.09300267696380615 0.8388396501541138 5.773265838623047
-0.09223098307847977 0.8539369106292725 5.7761616706848145
-0.08624780178070068 0.6823350191116333 5.746989727020264
-0.08624780178070068 0.6823350191116333 5.746989727020264
-0.02888447977602482 0.0426679365336895 5.611507892608643
0.12264950573444366 0.07274811714887619 5.8092756271362305
0.12522630393505096 0.07773227244615555 5.805832386016846
0.13498854637145996 -1.5542783737182617 5.232181072235107
0.14617526531219482 -1.5613789558410645 5.255924224853516
0.17077501118183136 -1.1123692989349365 5.282381534576416
0.21780692040920258 1.3902504444122314 4.207382678985596
0.5221551060676575 1.0768554210662842 5.994711399078369
0.58310467004776 2.9749643802642822 5.997132778167725
0.6082334518432617 2.9532883167266846 6.133018970489502
0.6354094743728638 2.9687466621398926 6.011397361755371
0.6477466821670532 2.9622981548309326 6.071435451507568
0.6979686617851257 2.9524452686309814 6.116143703460693
0.6926177144050598 2.9660420417785645 6.03403377532959
0.6022675633430481 1.2056365013122559 5.178467750549316
0.6627863049507141 0.9841487407684326 5.593726634979248
0.7395573854446411 2.9564037322998047 6.12331485748291
0.6841103434562683 0.3313823640346527 5.521222114562988
0.6841103434562683 0.3313823640346527 5.521222114562988
0.687249481678009 0.3356624245643616 5.527029991149902
0.7873836159706116 2.956943988800049 6.116787433624268
0.7498166561126709 1.1440200805664062 5.714166164398193
0.7588157653808594 0.8208091855049133 5.590383052825928
0.8331809639930725 2.9719736576080322 6.004177093505859
0.8331809639930725 2.9719736576080322 6.004177093505859
0.8547104001045227 2.941202402114868 6.146756172180176
0.7622551918029785 1.0862607955932617 5.430421352386475
0.7955864071846008 1.0642833709716797 5.518716812133789
0.8955866098403931 2.9684321880340576 6.027061462402344
0.8956874012947083 2.974222183227539 6.003815174102783
0.9011622071266174 2.970686674118042 6.021204948425293
0.4350924789905548 -0.3033069670200348 2.845188617706299
0.9343716502189636 2.9621376991271973 6.060577392578125
0.940759003162384 2.958934783935547 6.080708980560303
0.8144701719284058 1.1673729419708252 5.239996433258057
0.9402387738227844 2.9738428592681885 5.9956817626953125
0.9540514349937439 1.0939486026763916 6.0760498046875
0.9514904022216797 2.969453811645508 5.996891975402832
0.9793386459350586 2.972900390625 6.033353328704834
0.9793386459350586 2.972900390625 6.033353328704834
0.993733286857605 2.9538888931274414 6.090941905975342
0.9941681027412415 2.9595394134521484 6.088759899139404
0.9814337491989136 2.9759349822998047 6.001043796539307
0.9941651821136475 2.9637482166290283 6.069911956787109
1.008087396621704 2.9609618186950684 6.071778774261475
1.008087396621704 2.9609618186950684 6.071778774261475
0.7015974521636963 1.3467864990234375 4.085163593292236
1.0491154193878174 1.1905336380004883 6.105535984039307
1.0660542249679565 1.1770609617233276 6.128328800201416
1.0465879440307617 1.129564642906189 5.791896343231201
1.0032051801681519 1.0807300806045532 5.503897190093994
1.0228633880615234 1.0646945238113403 5.534973621368408
0.918628990650177 2.047560453414917 4.521742820739746
1.0711530447006226 1.1563280820846558 5.236248016357422
1.072526454925537 0.9918898940086365 5.1507649421691895
1.1240785121917725 1.1316335201263428 5.300621509552002
1.2558084726333618 1.1165865659713745 5.820708274841309
0.8361753821372986 1.1970573663711548 3.8718953132629395
1.2187538146972656 0.9430825114250183 5.611769676208496
0.8405457139015198 1.1806343793869019 3.8626294136047363
0.8431211113929749 1.174782633781433 3.8598272800445557
1.228241205215454 0.9367774724960327 5.604860782623291
1.22587251663208 -0.004889321979135275 5.4584574699401855
1.2355998754501343 -0.02553541399538517 5.496166706085205
1.2456889152526855 0.01797688752412796 5.4959611892700195
1.2594883441925049 1.079341173171997 5.543447494506836
1.2429218292236328 -0.09118040651082993 5.4608893394470215
1.247542381286621 -0.09657740592956543 5.462099075317383
0.8772997856140137 1.158687949180603 3.839292526245117
1.1970633268356323 -2.1212048530578613 5.214066505432129
1.2533105611801147 -0.03349869325757027 5.457571029663086
1.2533105611801147 -0.03349869325757027 5.457571029663086
1.2549628019332886 -0.003696236526593566 5.456035137176514
1.1895990371704102 -2.04306697845459 5.164333820343018
1.2115858793258667 1.1618305444717407 5.240416526794434
1.260103464126587 -0.6930997967720032 5.404763698577881
1.231458306312561 1.1968327760696411 5.24487829208374
1.2727746963500977 -0.6395525932312012 5.417637825012207
1.2672172784805298 1.1143114566802979 5.366113185882568
0.9566888213157654 1.1143479347229004 3.8209033012390137
1.3099043369293213 -0.08731698244810104 5.096408843994141
1.3099043369293213 -0.08731698244810104 5.096408843994141
1.3166269063949585 -0.08664737641811371 5.090319633483887
1.447867512702942 1.0631178617477417 5.552988529205322
1.2401446104049683 1.3030741214752197 4.74189567565918
1.0910266637802124 1.2572145462036133 4.116763114929199
1.0190502405166626 1.1004868745803833 3.8090763092041016
1.5805269479751587 0.04513709619641304 5.731015682220459
1.0609666109085083 1.1142659187316895 3.7886581420898438
1.178852915763855 1.2246038913726807 4.194183826446533
1.63633131980896 0.14866870641708374 5.812667369842529
1.617317795753479 -0.0441388301551342 5.7266058921813965
1.632397174835205 0.0375937819480896 5.772838115692139
1.636303186416626 0.06504914164543152 5.755517959594727
1.639799952507019 0.04223444312810898 5.760725498199463
1.5402144193649292 1.1106117963790894 5.396575927734375
1.1542789936065674 1.7585115432739258 4.038067817687988
1.0847975015640259 1.096564769744873 3.790369987487793
1.087517261505127 1.1010985374450684 3.793508291244507
1.1579196453094482 1.7358416318893433 4.028039932250977
1.6081448793411255 1.0641260147094727 5.593974590301514
1.6938647031784058 1.122039794921875 5.861641883850098
1.6938647031784058 1.122039794921875 5.861641883850098
1.5430511236190796 1.1324403285980225 5.3341474533081055
1.1718287467956543 1.7635570764541626 4.040450096130371
1.1799439191818237 1.7992568016052246 4.058656692504883
1.175377368927002 1.752461552619934 4.036348342895508
1.1434508562088013 1.6129419803619385 3.926300287246704
1.1767685413360596 1.7479331493377686 4.037184238433838
1.593451738357544 -0.00440644659101963 5.460648536682129
1.1859016418457031 1.784940242767334 4.051673889160156
1.1499409675598145 1.6110724210739136 3.9228947162628174
1.1530938148498535 1.5991815328598022 3.9172189235687256
1.1530938148498535 1.5991815328598022 3.9172189235687256
1.1959335803985596 1.793885350227356 4.058984756469727
1.1157233715057373 1.1150835752487183 3.7832655906677246
1.1914647817611694 1.7552473545074463 4.036167144775391
1.6304221153259277 -0.09661110490560532 5.513586521148682
1.5658118724822998 1.1439566612243652 5.293266773223877
1.194126009941101 1.7470022439956665 4.031788349151611
1.624481439590454 -0.02319616824388504 5.469298839569092
1.6609022617340088 1.067604422569275 5.5837082862854
1.626495599746704 -0.0020080513786524534 5.465137004852295
1.6255583763122559 -0.017273275181651115 5.461470603942871
1.5938822031021118 1.1257026195526123 5.353456497192383
1.5973646640777588 1.1211153268814087 5.364987373352051
1.2078708410263062 1.788013219833374 4.0525898933410645
1.1341111660003662 1.0856508016586304 3.8045663833618164
1.2105860710144043 1.795272946357727 4.058797359466553
1.2105860710144043 1.795272946357727 4.058797359466553
1.5928936004638672 1.1314040422439575 5.339111328125
1.5928936004638672 1.1314040422439575 5.339111328125
1.6278561353683472 -0.3045342266559601 5.456161975860596
1.2130001783370972 1.8086695671081543 4.065049171447754
1.594865322113037 1.135445475578308 5.332803249359131
1.2069121599197388 1.7498093843460083 4.035399436950684
1.1305862665176392 1.1133275032043457 3.7798573970794678
1.1772714853286743 1.627082109451294 3.934471368789673
1.1772714853286743 1.627082109451294 3.934471368789673
1.6280237436294556 -0.41213706135749817 5.440082550048828
1.2120290994644165 1.7664945125579834 4.0477986335754395
1.2156075239181519 1.793163776397705 4.057886600494385
1.1848607063293457 1.6523438692092896 3.951887369155884
1.2155064344406128 1.7683494091033936 4.045341491699219
1.6433228254318237 -0.19662179052829742 5.4688801765441895
1.6433228254318237 -0.19662179052829742 5.4688801765441895
1.1813404560089111 1.6175885200500488 3.927912712097168
1.1791605949401855 1.6071991920471191 3.92037296295166
1.6339776515960693 -0.5983905792236328 5.427647113800049
1.6192219257354736 -0.9115568995475769 5.377089023590088
1.1403019428253174 1.1030833721160889 3.7861318588256836
1.2196704149246216 1.7614474296569824 4.041628360748291
1.7049126625061035 0.918674111366272 5.648481845855713
1.7111907005310059 0.9698713421821594 5.664586544036865
1.184769630432129 1.6067880392074585 3.9169185161590576
1.1889009475708008 1.617781639099121 3.9277596473693848
1.1973836421966553 1.657205581665039 3.954193353652954
1.7123183012008667 0.9177677631378174 5.648421764373779
1.6343499422073364 -0.921413242816925 5.39052152633667
1.2282984256744385 1.7887613773345947 4.0512495040893555
1.2004209756851196 1.6626235246658325 3.9576902389526367
1.2315841913223267 1.797944188117981 4.0604047775268555
1.6489880084991455 -0.5663384795188904 5.4245991706848145
1.196600317955017 1.6046916246414185 3.9182138442993164
1.6510300636291504 -0.7837722301483154 5.402364730834961
1.199917197227478 1.6161680221557617 3.9259986877441406
1.2388546466827393 1.7743510007858276 4.0492048263549805
1.200332522392273 1.6011406183242798 3.9189860820770264
1.6405434608459473 -1.22781503200531 5.355130672454834
1.2385989427566528 1.7661194801330566 4.0417070388793945
1.2385989427566528 1.7661194801330566 4.0417070388793945
1.2387210130691528 1.7451971769332886 4.032007694244385
1.2070274353027344 1.6153753995895386 3.9259941577911377
1.2070274353027344 1.6153753995895386 3.9259941577911377
1.6253786087036133 1.1541613340377808 5.2855377197265625
1.2460880279541016 1.778714895248413 4.049438953399658
1.2435309886932373 1.7656837701797485 4.040302753448486
1.2454499006271362 1.7653651237487793 4.04551362991333
1.24539053440094 1.7719173431396484 4.044086933135986
1.6572343111038208 -1.3616149425506592 5.376344680786133
1.2444695234298706 1.7533185482025146 4.036403656005859
1.2227306365966797 1.6550447940826416 3.955867052078247
1.216275691986084 1.6256093978881836 3.9200780391693115
1.2301424741744995 1.652846336364746 3.9518232345581055
1.2301424741744995 1.652846336364746 3.9518232345581055
1.219582438468933 1.6038553714752197 3.917574644088745
1.6512659788131714 1.1386796236038208 5.303853511810303
1.179132103919983 1.1040196418762207 3.782975435256958
1.1772338151931763 1.110666275024414 3.7767200469970703
1.398235559463501 1.3099738359451294 4.466253280639648
1.2371169328689575 1.6407687664031982 3.9434494972229004
1.2371169328689575 1.6407687664031982 3.9434494972229004
1.232085108757019 1.6078435182571411 3.9229912757873535
1.2398651838302612 1.6340105533599854 3.942208766937256
1.2459505796432495 1.6554535627365112 3.953953266143799
1.2459505796432495 1.6554535627365112 3.953953266143799
1.2396559715270996 1.6249278783798218 3.9336705207824707
1.250280737876892 1.6453572511672974 3.9430055618286133
1.2478203773498535 1.6100029945373535 3.923938751220703
1.3235758543014526 2.0238678455352783 4.161996841430664
1.2560712099075317 1.6426477432250977 3.944967031478882
1.205109715461731 1.1124259233474731 3.7798004150390625
1.8193187713623047 -0.13831643760204315 5.704082489013672
1.2079898118972778 1.106465458869934 3.7833592891693115
1.2091151475906372 1.1037464141845703 3.7806332111358643
1.2096260786056519 1.1146849393844604 3.7755391597747803
1.262996792793274 1.6338738203048706 3.9385271072387695
1.2126356363296509 1.110588788986206 3.7774746417999268
1.2673656940460205 1.6416467428207397 3.946397066116333
1.2176424264907837 1.0971688032150269 3.787609338760376
1.2702687978744507 1.6489393711090088 3.947028398513794
1.2162526845932007 1.1123578548431396 3.7719969749450684
1.2735599279403687 1.6454256772994995 3.9494311809539795
1.2820336818695068 1.649463415145874 3.9507250785827637
1.9499711990356445 2.9774980545043945 5.998904705047607
1.232529640197754 1.1072355508804321 3.77852463722229
1.9148344993591309 1.0522220134735107 5.868619918823242
2.0064663887023926 2.9520246982574463 6.1485700607299805
1.9832277297973633 2.9608335494995117 6.066648006439209
1.9229437112808228 1.0416167974472046 5.8647589683532715
1.9229437112808228 1.0416167974472046 5.8647589683532715
1.9231646060943604 1.0527533292770386 5.861577033996582
1.9934860467910767 2.9662892818450928 6.070363998413086
1.7473318576812744 1.1933783292770386 5.293213367462158
1.9361612796783447 1.039392352104187 5.863265514373779
1.248120665550232 1.110722303390503 3.777935266494751
2.0256240367889404 2.9588029384613037 6.104552268981934
2.011075496673584 2.972503423690796 6.042316913604736
2.0214531421661377 2.9794270992279053 6.014448165893555
1.7745025157928467 1.1805682182312012 5.262498378753662
2.029230833053589 2.9750349521636963 6.0095953941345215
2.0485899448394775 2.882849931716919 6.05376672744751
2.0374536514282227 2.974277973175049 6.010141372680664
2.0337369441986084 2.972630262374878 5.993270397186279
2.0541625022888184 2.9733166694641113 6.05019998550415
1.9438520669937134 0.20760174095630646 5.661564826965332
1.9438520669937134 0.20760174095630646 5.661564826965332
1.8024702072143555 1.1819478273391724 5.227074146270752
1.9835447072982788 0.024579325690865517 5.7460036277771
1.9900145530700684 0.01972472481429577 5.745321273803711
1.9921008348464966 0.007637497503310442 5.746951580047607
1.9921008348464966 0.007637497503310442 5.746951580047607
1.826189637184143 1.1782783269882202 5.247576713562012
1.8144237995147705 1.207197666168213 5.210113048553467
2.0117027759552 0.037370018661022186 5.771134853363037
2.0087010860443115 0.08961749076843262 5.7602972984313965
2.006133556365967 0.003392073791474104 5.751639366149902
2.0085761547088623 0.011524069122970104 5.756231784820557
2.0085761547088623 0.011524069122970104 5.756231784820557
2.017646312713623 0.10879404842853546 5.765631675720215
2.0109715461730957 -0.06947068125009537 5.745025157928467
2.0109715461730957 -0.06947068125009537 5.745025157928467
1.9997191429138184 -0.22633744776248932 5.710625171661377
2.1148765087127686 2.975811004638672 6.036077976226807
2.007291078567505 -0.10722645372152328 5.727799892425537
2.020233392715454 0.11470717936754227 5.762345790863037
2.1119372844696045 2.983717203140259 6.019054889678955
2.025730609893799 0.08470797538757324 5.7604146003723145
2.0250496864318848 0.09598429501056671 5.75581693649292
2.0147311687469482 -0.1428009569644928 5.715840816497803
2.1215834617614746 2.9794867038726807 6.014285087585449
2.028320550918579 0.02564256638288498 5.747588157653809
1.3374457359313965 1.109947919845581 3.7860171794891357
2.1632063388824463 2.9579761028289795 6.122889518737793
2.0355255603790283 0.044885117560625076 5.7530837059021
2.032025098800659 0.031056450679898262 5.742216110229492
2.1287999153137207 2.965785026550293 6.0152411460876465
2.1287999153137207 2.965785026550293 6.0152411460876465
2.0367724895477295 0.08424334973096848 5.753839492797852
2.0314438343048096 -0.02256675437092781 5.733322620391846
2.0300028324127197 -0.11465469747781754 5.715941429138184
2.022383689880371 -0.2961037755012512 5.691337585449219
2.0355846881866455 -0.10718046128749847 5.724073886871338
2.0469253063201904 0.0894262045621872 5.755120754241943
2.009284496307373 -0.5549900531768799 5.647091865539551
2.138158082962036 2.9785547256469727 6.001035690307617
2.0338289737701416 -0.30756571888923645 5.684208869934082
1.9887912273406982 -1.0338029861450195 5.553501129150391
1.9887912273406982 -1.0338029861450195 5.553501129150391
2.02365779876709 -0.5546578764915466 5.642671585083008
2.010838747024536 -0.8979082703590393 5.597795009613037
2.010838747024536 -0.8979082703590393 5.597795009613037
2.0404162406921387 -0.35563352704048157 5.674549579620361
2.1859452724456787 2.966787338256836 6.070511341094971
2.2123801708221436 2.964493751525879 6.137445449829102
